ply
format ascii 1.0
element vertex 147
property float x
property float y
property float z
property uchar red
property uchar green
property uchar blue
end_header
396.9375305175781 -234.74127197265625 16.0 98 86 68
413.9511413574219 -233.13107299804688 16.0 14 24 13
421.0217590332031 -14.656733512878418 16.0 128 121 102
421.12091064453125 -230.68902587890625 16.0 12 17 7
481.8027038574219 -270.1177062988281 17.0 107 102 76
490.9981994628906 -187.10067749023438 15.0 126 119 98
491.5618896484375 -103.49154663085938 15.0 26 25 12
491.8737487792969 -81.30260467529297 15.0 58 59 46
492.35693359375 -88.60470581054688 15.0 28 37 21
497.5228576660156 -186.39309692382812 15.0 133 132 117
497.567626953125 -192.3185272216797 15.0 130 128 108
497.8134765625 -149.2496795654297 15.0 116 111 87
498.30230712890625 -117.45179748535156 15.0 127 132 120
498.5469055175781 -81.21369934082031 15.0 118 126 113
498.5469055175781 -81.21369934082031 15.0 118 126 113
502.9114990234375 -98.12965393066406 15.0 134 123 96
502.9114990234375 -98.12965393066406 15.0 134 123 96
503.4634094238281 -74.29049682617188 15.0 118 113 94
506.4386291503906 -117.51041412353516 15.0 38 39 32
506.4386291503906 -117.51041412353516 15.0 38 39 32
508.5894775390625 -111.82749938964844 15.0 34 44 30
508.6625061035156 -103.46158599853516 15.0 43 52 34
512.3142700195312 -74.9140853881836 15.0 134 134 109
513.1408081054688 -106.3932876586914 15.0 130 132 118
514.1273803710938 -149.39999389648438 15.0 92 93 84
514.6749267578125 -133.03530883789062 15.0 32 43 29
514.6749267578125 -133.03530883789062 15.0 32 43 29
516.045166015625 -105.5052719116211 15.0 28 34 17
516.045166015625 -105.5052719116211 15.0 28 34 17
518.1455688476562 -88.61185455322266 15.0 87 89 75
519.1773071289062 -102.64090728759766 15.0 135 128 109
520.0182495117188 -140.49098205566406 15.0 20 19 6
523.4837036132812 -189.03213500976562 15.0 84 77 54
525.3274536132812 -103.77012634277344 15.0 121 115 98
525.3274536132812 -103.77012634277344 15.0 121 115 98
525.3392944335938 -118.31573486328125 15.0 129 131 108
527.3432006835938 -133.21292114257812 15.0 123 117 103
527.5595092773438 -148.4496307373047 15.0 12 13 0
528.160400390625 -187.7049560546875 15.0 23 25 8
529.6822509765625 -137.58966064453125 15.0 122 121 107
531.3529052734375 -96.37779235839844 15.0 122 108 90
531.3908081054688 -151.676513671875 15.0 118 111 87
531.5472412109375 -186.37551879882812 15.0 106 107 93
532.2003784179688 -112.25476837158203 15.0 18 29 13
532.4534301757812 -189.43408203125 15.0 123 118 99
532.4534301757812 -189.43408203125 15.0 123 118 99
534.0405883789062 -141.36903381347656 15.0 80 81 70
534.0405883789062 -141.36903381347656 15.0 80 81 70
534.7132568359375 -147.7506866455078 15.0 125 120 105
535.2310791015625 -191.49928283691406 15.0 121 114 95
535.854736328125 -111.54978942871094 15.0 11 27 9
537.9080200195312 -127.72765350341797 15.0 135 123 108
537.9080200195312 -127.72765350341797 15.0 135 123 108
539.0618286132812 -185.4834747314453 15.0 123 113 101
542.15673828125 -102.22339630126953 152.0 122 117 95
542.438720703125 -134.7349395751953 15.0 123 125 104
542.7906494140625 -81.56547546386719 15.0 131 126 102
545.6534423828125 -102.01436614990234 13.0 96 87 66
546.0120849609375 -89.48462677001953 15.0 116 111 87
546.0120849609375 -89.48462677001953 15.0 116 111 87
549.5867309570312 -109.54554748535156 15.0 27 35 24
552.2131958007812 -111.89054870605469 15.0 61 78 61
552.2131958007812 -111.89054870605469 15.0 61 78 61
552.8582763671875 -126.0701675415039 15.0 135 120 103
555.08056640625 -184.180908203125 15.0 56 62 40
558.0054931640625 -133.333740234375 15.0 113 115 94
558.3002319335938 -191.3430633544922 15.0 128 116 99
560.3475952148438 -101.59741973876953 15.0 122 108 88
560.8849487304688 -118.54283142089844 15.0 37 42 34
560.8849487304688 -118.54283142089844 15.0 37 42 34
563.18896484375 -184.3670196533203 15.0 104 104 83
563.18896484375 -184.3670196533203 15.0 104 104 83
564.415771484375 -123.2750244140625 15.0 122 115 94
564.43896484375 -105.09038543701172 15.0 118 111 85
564.6995239257812 -186.66148376464844 15.0 121 123 104
564.7744750976562 -115.89997863769531 15.0 14 28 16
564.7744750976562 -115.89997863769531 15.0 14 28 16
565.4722900390625 -191.8185272216797 15.0 124 119 100
565.5866088867188 -186.6448516845703 15.0 97 98 80
566.47900390625 -145.0752716064453 15.0 21 29 18
568.6893920898438 -184.66749572753906 15.0 112 113 95
569.9775390625 -125.37547302246094 15.0 128 120 106
571.8179931640625 -137.2657470703125 15.0 19 19 10
572.2490234375 -140.39459228515625 15.0 15 16 2
572.9869995117188 -102.01705932617188 15.0 112 108 80
573.4064331054688 -185.1464080810547 15.0 42 43 29
573.491943359375 -188.98446655273438 15.0 34 35 19
573.491943359375 -188.98446655273438 15.0 34 35 19
576.1426391601562 -192.2277374267578 15.0 110 105 86
576.7919921875 -251.98175048828125 15.0 92 81 54
576.9874877929688 -117.09528350830078 15.0 33 33 24
578.0935668945312 -120.34046173095703 15.0 23 29 18
578.3251953125 -189.17318725585938 15.0 51 50 28
578.4800415039062 -106.0614013671875 15.0 123 125 111
581.1828002929688 -192.63287353515625 15.0 117 107 91
581.1890258789062 -186.84283447265625 15.0 131 126 111
581.2186889648438 -181.4541778564453 15.0 98 99 85
581.71142578125 -148.03106689453125 15.0 16 22 7
581.7517700195312 -134.0001983642578 15.0 7 15 4
583.2872314453125 -103.99000549316406 15.0 175 175 170
583.831787109375 -122.13732147216797 15.0 31 38 36
583.831787109375 -122.13732147216797 15.0 31 38 36
583.918212890625 -188.36349487304688 15.0 17 23 6
584.0404052734375 -184.05044555664062 15.0 42 59 48
586.7628173828125 -130.01597595214844 15.0 167 182 186
586.7628173828125 -130.01597595214844 15.0 167 182 186
587.4674682617188 -110.0157699584961 15.0 165 183 188
587.4674682617188 -110.0157699584961 15.0 165 183 188
588.5692749023438 -148.9247283935547 15.0 154 177 183
591.201416015625 -137.19073486328125 15.0 163 183 188
591.201416015625 -137.19073486328125 15.0 163 183 188
591.3145141601562 -192.79931640625 15.0 164 180 185
593.7832641601562 -138.86819458007812 14.0 160 180 186
595.333740234375 -58.67301559448242 15.0 158 178 187
596.0435791015625 -148.90005493164062 15.0 158 175 183
596.6014404296875 -192.40640258789062 15.0 158 178 185
597.1068725585938 -142.17526245117188 15.0 162 177 187
601.0156860351562 -147.1925506591797 15.0 182 200 205
601.8773803710938 -144.49375915527344 15.0 46 65 76
603.0396728515625 -192.01953125 15.0 158 178 187
603.4323120117188 -181.62152099609375 15.0 164 184 195
605.1310424804688 -139.3677215576172 15.0 179 201 212
606.1602172851562 -183.64622497558594 15.0 168 192 200
612.4065551757812 -83.69320678710938 12.0 154 172 182
615.0958251953125 -80.90830993652344 15.0 155 175 184
616.716796875 -102.01165008544922 15.0 149 169 180
616.716796875 -102.01165008544922 15.0 149 169 180
618.180908203125 -82.94103240966797 15.0 152 174 183
618.180908203125 -82.94103240966797 15.0 152 174 183
619.4584350585938 -99.21707153320312 15.0 23 45 56
619.4584350585938 -99.21707153320312 15.0 23 45 56
619.4794311523438 -91.12388610839844 15.0 168 188 192
622.9977416992188 -138.64674377441406 15.0 176 201 202
622.9977416992188 -138.64674377441406 15.0 176 201 202
624.0462646484375 -277.96697998046875 1340.0 119 120 110
624.1755981445312 -115.27569580078125 15.0 186 208 214
626.0670776367188 -136.37091064453125 15.0 157 179 181
626.112060546875 -108.73186492919922 15.0 0 7 4
626.5988159179688 -94.1253662109375 15.0 6 22 23
627.3306274414062 -227.27207946777344 15.0 104 99 78
628.170166015625 -90.20618438720703 15.0 16 37 33
628.9400024414062 -115.25643157958984 15.0 177 194 202
630.0772705078125 -93.95897674560547 15.0 0 15 9
632.5397338867188 -139.35995483398438 15.0 163 195 197
634.382568359375 -157.97889709472656 15.0 148 170 181
635.5758056640625 -140.50558471679688 15.0 0 23 31
635.6005249023438 -85.32378387451172 15.0 151 171 178
