ply
format ascii 1.0
element vertex 308
property float x
property float y
property float z
property uchar red
property uchar green
property uchar blue
end_header
287.3564453125 -200.85765075683594 34.0 159 173 170
335.8042297363281 -234.50778198242188 31.0 141 149 140
338.33209228515625 -223.2382049560547 31.0 90 81 56
343.57427978515625 -231.93841552734375 31.0 52 58 45
343.9468994140625 -138.44740295410156 31.0 108 100 65
344.3408508300781 -164.310302734375 31.0 111 97 78
344.767578125 -219.9510498046875 31.0 61 56 39
344.767578125 -219.9510498046875 31.0 61 56 39
346.57391357421875 -18.623517990112305 1453.0 129 122 101
346.93280029296875 -130.33267211914062 30.0 106 93 57
350.2249450683594 -237.6773223876953 31.0 75 83 68
353.7689208984375 -39.449092864990234 31.0 127 115 93
355.0721130371094 -36.451236724853516 31.0 17 8 0
355.4111022949219 -20.135637283325195 31.0 17 8 0
360.2090759277344 -8.609740257263184 31.0 107 50 31
363.739013671875 -6.301032543182373 31.0 134 68 47
364.1369934082031 -12.353923797607422 30.0 139 76 61
364.5295715332031 -24.61377716064453 31.0 140 87 67
371.67449951171875 -23.19316291809082 30.0 137 90 76
376.331787109375 -207.8135986328125 30.0 124 115 92
376.3884582519531 -166.45260620117188 30.0 114 117 87
376.44378662109375 -35.74272918701172 30.0 127 95 71
377.4449462890625 -41.943416595458984 30.0 125 93 68
379.06939697265625 -154.26792907714844 30.0 121 112 82
379.1593017578125 -186.37442016601562 30.0 123 113 95
380.4479675292969 -170.86790466308594 37.0 116 112 83
380.4479675292969 -170.86790466308594 30.0 116 112 83
380.6767272949219 -162.90699768066406 30.0 126 117 94
380.6767272949219 -162.90699768066406 30.0 126 117 94
380.89422607421875 -166.75640869140625 30.0 117 110 78
381.2678527832031 -156.5758056640625 30.0 125 116 89
382.3679504394531 -177.185791015625 30.0 113 106 81
382.5321350097656 -153.21743774414062 30.0 114 109 81
382.5665283203125 -25.73164939880371 30.0 114 74 65
383.7946472167969 -169.46224975585938 30.0 112 109 75
383.7946472167969 -169.46224975585938 30.0 112 109 75
384.3204345703125 -166.56243896484375 30.0 120 114 85
385.4336853027344 -151.46517944335938 30.0 121 115 87
387.19805908203125 -187.16592407226562 30.0 119 115 87
387.466552734375 -180.6964874267578 30.0 131 123 102
388.0845031738281 -24.093475341796875 30.0 140 99 78
388.10601806640625 -158.0148468017578 30.0 41 38 14
388.761474609375 -154.55712890625 30.0 129 119 97
391.91156005859375 -150.87062072753906 30.0 47 46 28
394.9861145019531 -161.61325073242188 30.0 16 24 10
395.1631164550781 -207.888671875 30.0 122 113 81
395.1631164550781 -207.888671875 30.0 122 113 81
396.89752197265625 -176.78102111816406 30.0 116 118 102
396.89752197265625 -176.78102111816406 30.0 116 118 102
399.44549560546875 -188.60081481933594 30.0 118 111 81
403.4969177246094 -168.4177703857422 30.0 108 106 82
403.9396057128906 -194.7340087890625 30.0 120 109 84
404.119384765625 -21.254724502563477 30.0 148 103 93
405.0455017089844 -176.61509704589844 30.0 94 96 73
407.1024475097656 -171.7310333251953 30.0 121 114 89
407.60980224609375 -180.12933349609375 30.0 49 51 28
408.0151672363281 -165.01441955566406 30.0 122 117 95
410.4964599609375 -44.1868896484375 30.0 130 56 44
410.7256774902344 -175.00047302246094 30.0 121 120 100
411.78466796875 -179.63534545898438 30.0 68 68 47
411.89447021484375 -186.00869750976562 30.0 125 113 89
413.80322265625 -176.41061401367188 30.0 79 81 58
413.84515380859375 -165.02346801757812 30.0 24 24 0
413.8504943847656 -172.35406494140625 30.0 117 112 89
414.18035888671875 -182.40586853027344 30.0 120 113 90
419.4101257324219 -188.15145874023438 30.0 120 109 82
419.6138916015625 -171.22520446777344 30.0 94 89 69
422.3792419433594 -168.59942626953125 30.0 126 114 92
423.1181335449219 -186.94143676757812 30.0 113 102 73
423.6784362792969 -57.245460510253906 30.0 98 45 21
426.61309814453125 -126.64229583740234 42.0 115 106 74
426.8279113769531 -169.19528198242188 30.0 62 58 27
428.92047119140625 -186.7460174560547 30.0 114 99 64
429.6842956542969 -28.01898765563965 30.0 119 68 51
430.23779296875 -36.53956604003906 30.0 72 35 23
430.79522705078125 -183.55430603027344 30.0 107 106 72
431.9560241699219 -101.55526733398438 30.0 108 104 75
434.3728332519531 -115.3503189086914 30.0 84 85 67
437.53326416015625 -260.8790283203125 30.0 109 111 93
438.2050476074219 -39.97179412841797 30.0 2 17 4
438.5309143066406 -107.62236022949219 30.0 159 174 175
438.9373779296875 -36.81209182739258 30.0 134 148 138
439.1869201660156 -162.36935424804688 30.0 156 177 172
439.77093505859375 -58.173179626464844 30.0 156 172 175
439.9405212402344 -27.470762252807617 30.0 165 183 183
440.5069580078125 -166.027099609375 30.0 145 168 165
441.5528259277344 -79.6928482055664 30.0 72 95 90
442.2961120605469 -27.244781494140625 30.0 164 180 183
442.3641357421875 -105.90970611572266 30.0 164 182 184
444.4325256347656 -204.71099853515625 30.0 149 170 170
444.4325256347656 -204.71099853515625 30.0 149 170 170
444.444091796875 -157.94717407226562 30.0 47 64 53
444.6732482910156 -92.91166687011719 30.0 162 185 189
445.38690185546875 -166.2268829345703 30.0 159 175 173
445.61492919921875 -225.64491271972656 30.0 118 106 84
447.783447265625 -98.2159423828125 30.0 160 187 188
447.85198974609375 -193.47897338867188 30.0 147 167 167
447.9706726074219 -23.432729721069336 30.0 163 179 182
448.0813903808594 -85.82134246826172 30.0 156 169 171
448.4594421386719 -44.22869873046875 30.0 140 160 164
448.5354919433594 -153.34539794921875 30.0 152 169 151
448.86456298828125 -162.60800170898438 30.0 84 107 105
449.395263671875 -214.05795288085938 30.0 119 143 155
449.752197265625 -204.38108825683594 30.0 148 168 168
450.0389099121094 -104.16521453857422 30.0 139 153 150
450.6145324707031 -21.278263092041016 30.0 159 174 180
451.45458984375 -36.15068435668945 30.0 121 135 132
451.55059814453125 -195.13638305664062 30.0 144 162 165
453.0320739746094 -128.55734252929688 30.0 152 170 171
453.0320739746094 -128.55734252929688 30.0 152 170 171
453.181396484375 -23.369400024414062 30.0 191 207 208
453.45428466796875 -40.3795051574707 30.0 0 8 0
454.33349609375 -201.2227783203125 30.0 85 101 100
454.9147033691406 -188.9053955078125 30.0 148 169 164
454.9259033203125 -35.524497985839844 30.0 121 134 134
456.3541259765625 -240.6177215576172 35.0 91 92 74
456.5988464355469 -79.00807189941406 31.0 100 114 111
456.5988464355469 -79.00807189941406 30.0 100 114 111
457.11614990234375 -162.54623413085938 30.0 168 183 175
457.3560791015625 -153.55479431152344 30.0 125 140 126
457.81201171875 -22.75682258605957 30.0 159 178 173
458.13153076171875 -228.96620178222656 30.0 113 104 74
458.4802551269531 -204.0790557861328 30.0 97 120 140
460.07000732421875 -35.53468322753906 30.0 115 125 114
460.6312561035156 -46.24294662475586 30.0 171 196 195
460.6312561035156 -46.24294662475586 30.0 171 196 195
461.126708984375 -189.3496551513672 30.0 81 99 98
461.126708984375 -189.3496551513672 30.0 81 99 98
461.40594482421875 -38.57307815551758 30.0 100 122 104
461.5824890136719 -99.833740234375 31.0 146 170 160
461.882568359375 -97.67096710205078 30.0 156 174 176
462.10162353515625 -205.6282501220703 30.0 146 164 173
462.1607971191406 -210.0453643798828 30.0 154 178 186
462.51947021484375 -26.011947631835938 39.0 153 174 169
462.5209655761719 -198.0856475830078 30.0 129 150 152
462.6803283691406 -194.202880859375 30.0 153 176 180
463.1219787597656 -79.2726821899414 30.0 70 95 92
463.1219787597656 -79.2726821899414 30.0 70 95 92
463.7364807128906 -91.84747314453125 30.0 83 102 98
463.7364807128906 -91.84747314453125 30.0 83 102 98
465.2615661621094 -103.11825561523438 30.0 93 115 119
466.1359558105469 -38.470733642578125 30.0 132 161 141
466.9478454589844 -165.17506408691406 30.0 96 119 114
467.0368957519531 -46.16912078857422 30.0 123 146 141
467.42034912109375 -192.85890197753906 30.0 149 162 166
467.42034912109375 -192.85890197753906 30.0 149 162 166
467.8074035644531 -97.0674057006836 30.0 153 169 170
468.0130310058594 -199.28927612304688 30.0 139 155 153
468.08502197265625 -218.6283416748047 30.0 77 82 70
468.3717956542969 -99.49852752685547 30.0 86 104 102
468.3717956542969 -99.49852752685547 30.0 86 104 102
469.7890625 -25.966156005859375 30.0 182 193 197
470.2819519042969 -30.379854202270508 30.0 0 21 9
470.39019775390625 -78.38175964355469 30.0 75 100 94
471.0953369140625 -152.7925567626953 30.0 54 72 73
472.3703918457031 -78.85262298583984 30.0 156 182 172
472.4897766113281 -164.99124145507812 30.0 125 139 136
474.3059997558594 -96.49828338623047 30.0 160 176 177
474.52520751953125 -169.37918090820312 30.0 151 169 172
474.52520751953125 -169.37918090820312 30.0 151 169 172
475.33282470703125 -194.66697692871094 30.0 169 185 186
475.6655578613281 -29.178037643432617 30.0 149 170 170
475.6655578613281 -29.178037643432617 30.0 149 170 170
476.4172668457031 -103.79377746582031 30.0 61 80 69
476.6472473144531 -111.442138671875 30.0 153 171 172
477.1754455566406 -165.1057586669922 30.0 52 76 66
477.8284912109375 -157.28038024902344 30.0 0 24 7
477.9842224121094 -160.49559020996094 30.0 178 194 193
477.9902648925781 -152.95199584960938 30.0 146 157 155
478.5310363769531 -100.74630737304688 30.0 156 190 171
479.2887878417969 -34.38671112060547 30.0 44 68 53
479.8172302246094 -24.96654510498047 30.0 176 192 193
479.9599304199219 -224.37339782714844 30.0 116 112 83
480.5741882324219 -38.06904602050781 30.0 40 64 52
481.0562744140625 -148.4253387451172 30.0 0 7 0
481.6305847167969 -199.22325134277344 30.0 13 38 35
481.8471984863281 -177.60037231445312 30.0 153 169 167
481.8948059082031 -156.57859802246094 30.0 0 17 10
482.124267578125 -194.4031219482422 30.0 118 138 138
482.21435546875 -102.79873657226562 30.0 155 179 173
482.21435546875 -102.79873657226562 30.0 155 179 173
482.30279541015625 -28.079030990600586 30.0 76 92 88
483.3246154785156 -29.822059631347656 30.0 135 161 155
483.5072021484375 -196.76400756835938 30.0 135 160 157
484.2101745605469 -25.130014419555664 30.0 43 62 51
484.5232849121094 -90.32555389404297 30.0 70 92 76
485.4093933105469 -160.07720947265625 30.0 101 117 120
485.5137023925781 -201.9412078857422 30.0 137 154 162
486.28875732421875 -77.12102508544922 30.0 81 107 101
486.28875732421875 -77.12102508544922 30.0 81 107 101
486.57122802734375 -219.98948669433594 30.0 109 107 85
487.1189270019531 -198.6788330078125 30.0 102 125 124
487.1189270019531 -198.6788330078125 30.0 102 125 124
488.10369873046875 -223.6613311767578 30.0 106 97 69
488.3347473144531 -41.674930572509766 30.0 2 12 0
488.59844970703125 -84.24545288085938 30.0 146 166 168
489.84716796875 -33.37165069580078 30.0 3 18 6
490.1778259277344 -148.35975646972656 30.0 0 10 0
490.4786071777344 -24.696735382080078 30.0 104 115 117
490.4786071777344 -24.696735382080078 30.0 104 115 117
490.839599609375 -156.7013702392578 30.0 88 112 102
491.9607238769531 -110.91912078857422 30.0 0 14 0
491.9607238769531 -110.91912078857422 30.0 0 14 0
492.2217102050781 -20.766380310058594 30.0 83 102 94
492.2785949707031 -206.73081970214844 30.0 149 169 180
492.5314636230469 -76.8545913696289 30.0 170 191 190
492.5314636230469 -76.8545913696289 91.0 170 191 190
492.6909484863281 -36.756996154785156 30.0 64 87 84
493.20013427734375 -145.75180053710938 30.0 41 57 54
493.20013427734375 -145.75180053710938 30.0 41 57 54
493.2856140136719 -28.66309928894043 30.0 84 100 103
493.3934020996094 -160.99362182617188 30.0 171 188 194
493.8594055175781 -89.73068237304688 30.0 121 144 134
495.1739501953125 -192.9541473388672 30.0 143 161 163
495.1739501953125 -192.9541473388672 30.0 143 161 163
496.3330993652344 -101.99815368652344 30.0 157 177 182
496.9176025390625 -147.82644653320312 30.0 79 98 89
496.9542236328125 -33.28391647338867 30.0 0 8 6
497.7827453613281 -160.35348510742188 30.0 168 187 187
497.788330078125 -36.5020866394043 30.0 117 136 132
497.989501953125 -163.9697723388672 30.0 161 182 173
498.7642517089844 -20.44205093383789 30.0 74 88 89
499.0281066894531 -110.37645721435547 30.0 0 18 9
499.0281066894531 -110.37645721435547 30.0 0 18 9
499.48291015625 -248.89004516601562 24.0 116 117 108
500.178955078125 -31.026254653930664 30.0 0 14 0
501.13397216796875 -18.126169204711914 30.0 148 156 161
503.0644226074219 -32.91102600097656 30.0 0 22 6
503.6971435546875 -154.597900390625 30.0 111 132 121
503.8929138183594 -147.50064086914062 30.0 53 70 55
505.17730712890625 -109.6614761352539 30.0 164 187 182
506.4128112792969 -101.78094482421875 30.0 156 172 175
506.51727294921875 -145.61415100097656 37.0 139 149 149
506.51727294921875 -145.61415100097656 37.0 139 149 149
507.5931091308594 -20.190401077270508 30.0 0 12 11
507.66656494140625 -209.49143981933594 30.0 110 132 143
507.83770751953125 -227.33828735351562 29.0 118 109 82
508.5638427734375 -24.034955978393555 30.0 28 39 41
509.3842468261719 -147.53489685058594 30.0 67 87 67
509.7300720214844 -35.852230072021484 30.0 131 145 144
509.89349365234375 -87.88285064697266 30.0 154 182 182
510.0777587890625 -32.61031723022461 30.0 0 17 4
510.1607360839844 -17.426156997680664 30.0 139 150 148
511.0654296875 -211.56802368164062 30.0 92 116 131
511.8592529296875 -217.12330627441406 30.0 74 81 73
513.4880981445312 -35.675384521484375 30.0 5 19 16
513.9447631835938 -19.552295684814453 30.0 24 35 39
514.3778076171875 -157.35728454589844 30.0 0 4 1
514.6497192382812 -139.86004638671875 30.0 97 114 99
514.6497192382812 -139.86004638671875 30.0 97 114 99
516.916259765625 -89.19526672363281 30.0 116 138 142
516.9537963867188 -222.9180450439453 30.0 103 99 72
517.423583984375 -113.42981719970703 30.0 33 54 40
517.428955078125 -159.0001983642578 30.0 186 203 211
518.1331176757812 -214.91769409179688 29.0 96 117 135
518.4948120117188 -137.21749877929688 30.0 36 58 46
519.2420043945312 -35.02373504638672 30.0 19 31 24
522.11328125 -90.60819244384766 30.0 87 113 107
522.3955688476562 -108.83795166015625 41.0 154 174 174
523.8816528320312 -144.86557006835938 41.0 180 199 194
524.0842895507812 -170.11585998535156 29.0 147 167 167
525.4044799804688 -213.19903564453125 29.0 135 160 165
525.4779052734375 -16.212888717651367 30.0 179 202 199
525.491943359375 -16.298770904541016 30.0 179 202 199
527.1431274414062 -145.9858856201172 29.0 122 135 137
530.1576538085938 -17.809858322143555 30.0 0 7 5
537.6672973632812 -108.67366790771484 29.0 151 177 175
537.6672973632812 -108.67366790771484 29.0 151 177 175
539.1619873046875 -142.78199768066406 34.0 98 119 114
543.1943359375 -145.3019561767578 29.0 131 154 153
546.3070678710938 -142.9740753173828 29.0 64 85 82
549.5537109375 -145.1612091064453 29.0 151 174 169
550.3388671875 -17.634300231933594 30.0 0 14 9
552.2348022460938 -15.521023750305176 30.0 129 150 146
557.448486328125 -18.14451789855957 117.0 184 196 195
559.0531005859375 -145.35964965820312 29.0 154 172 177
560.7970581054688 -110.1285629272461 30.0 149 168 157
563.4262084960938 -106.52410125732422 31.0 156 174 176
568.6171264648438 -147.5078582763672 27.0 0 16 0
569.526123046875 -69.98018646240234 30.0 157 177 184
575.3120727539062 -144.82568359375 29.0 88 103 113
575.5913696289062 -106.48356628417969 29.0 148 168 170
577.50048828125 -142.28668212890625 29.0 170 195 194
581.1276245117188 -143.45645141601562 29.0 151 172 174
582.0991821289062 -45.862640380859375 30.0 164 180 181
582.0991821289062 -45.862640380859375 30.0 164 180 181
582.882080078125 -106.57171630859375 29.0 101 127 137
591.8528442382812 -207.06019592285156 29.0 155 168 172
591.8905639648438 -76.1089096069336 13.0 149 169 174
595.1064453125 -143.46299743652344 29.0 147 167 171
596.0462646484375 -207.33091735839844 29.0 152 167 168
598.1407470703125 -16.655719757080078 31.0 175 200 194
600.6431884765625 -101.99303436279297 30.0 149 169 172
603.923583984375 -34.488765716552734 31.0 0 14 1
608.975830078125 -198.89015197753906 29.0 144 165 169
609.42138671875 -243.04689025878906 49.0 105 106 88
610.5958862304688 -34.808311462402344 31.0 0 11 0
611.7946166992188 -193.4068603515625 29.0 140 163 165
613.222412109375 -213.11366271972656 29.0 162 175 172
613.336669921875 -38.367103576660156 31.0 20 28 19
614.5237426757812 -188.48020935058594 29.0 149 165 166
614.622314453125 -172.6583251953125 29.0 150 167 173
615.8301391601562 -35.05021667480469 31.0 6 23 10
619.7575073242188 -173.3480987548828 29.0 152 167 170
623.4215698242188 -198.2434844970703 29.0 136 158 160
623.4215698242188 -198.2434844970703 29.0 136 158 160
624.9169921875 -172.45419311523438 29.0 147 170 172
625.1130981445312 -80.95370483398438 30.0 144 169 173
