ply
format ascii 1.0
element vertex 354
property float x
property float y
property float z
property uchar red
property uchar green
property uchar blue
end_header
308.02227783203125 -53.31780242919922 315.0 163 176 176
308.6323547363281 -61.367584228515625 304.0 163 175 177
316.1087646484375 -30.89397430419922 46.0 162 178 179
317.2903137207031 -225.83518981933594 47.0 103 98 79
318.4951477050781 -83.71438598632812 46.0 129 130 119
321.4721374511719 -224.49917602539062 47.0 86 84 62
321.4721374511719 -224.49917602539062 47.0 86 84 62
321.7408142089844 -124.03035736083984 46.0 109 106 91
326.73651123046875 -24.45734214782715 47.0 113 101 81
326.7388916015625 -227.82403564453125 46.0 81 80 60
328.1936950683594 -25.047760009765625 46.0 118 104 91
343.4143981933594 -177.86891174316406 46.0 115 106 81
343.4143981933594 -177.86891174316406 46.0 115 106 81
343.8534240722656 -228.84938049316406 44.0 99 92 69
344.1461181640625 -183.1562042236328 46.0 107 100 81
345.4375 -191.40077209472656 46.0 111 106 85
348.99786376953125 -195.68093872070312 46.0 115 108 89
354.1869201660156 -191.75537109375 46.0 105 102 82
354.1869201660156 -191.75537109375 46.0 105 102 82
355.89263916015625 -178.24745178222656 46.0 64 53 40
361.4384460449219 -110.70040893554688 46.0 113 85 66
361.6705322265625 -186.81442260742188 46.0 33 34 14
361.7352294921875 -208.9716796875 46.0 113 106 85
361.7352294921875 -208.9716796875 46.0 113 106 85
362.48699951171875 -50.63343048095703 46.0 118 104 85
362.48699951171875 -50.63343048095703 46.0 118 104 85
364.0994567871094 -191.11465454101562 46.0 98 94 70
365.9432067871094 -227.7886505126953 45.0 96 89 65
366.0450439453125 -54.70027160644531 46.0 118 106 88
366.4362487792969 -42.74140930175781 46.0 110 97 70
370.91082763671875 -196.39324951171875 46.0 117 105 83
372.3057861328125 -111.29869842529297 46.0 110 55 36
373.71051025390625 -137.695068359375 46.0 113 103 78
374.13946533203125 -203.10520935058594 46.0 91 87 65
374.2058410644531 -148.1022186279297 46.0 109 100 75
374.4897766113281 -52.087947845458984 46.0 115 63 41
374.6283874511719 -101.76359558105469 46.0 109 49 31
374.91937255859375 -107.63446807861328 46.0 115 62 45
376.2754821777344 -93.08043670654297 46.0 113 62 47
376.6172180175781 -111.8770980834961 46.0 106 48 30
378.99676513671875 -182.89187622070312 44.0 87 84 67
379.1321105957031 -120.7663345336914 46.0 112 105 84
380.9754638671875 -187.5267333984375 46.0 44 46 23
380.9754638671875 -187.5267333984375 46.0 44 46 23
381.2314758300781 -133.3078155517578 46.0 97 97 70
381.60443115234375 -105.1172103881836 45.0 86 46 35
381.6376953125 -51.926597595214844 46.0 159 146 131
381.8451843261719 -202.26373291015625 46.0 71 69 44
381.8451843261719 -202.26373291015625 46.0 71 69 44
383.076416015625 -141.45968627929688 46.0 104 105 91
383.076416015625 -141.45968627929688 46.0 104 105 91
383.85711669921875 -98.79548645019531 46.0 176 156 145
384.10723876953125 -137.43426513671875 46.0 140 152 149
384.10723876953125 -137.43426513671875 46.0 140 152 149
384.132080078125 -205.49188232421875 46.0 102 104 90
384.728759765625 -36.9400749206543 45.0 118 129 135
384.787109375 -195.46994018554688 46.0 99 100 88
385.0233154296875 -29.501344680786133 47.0 82 39 17
385.18560791015625 -54.69575881958008 46.0 139 148 153
385.39886474609375 -163.20924377441406 46.0 148 156 149
386.3747863769531 -202.4806365966797 46.0 158 168 161
386.91754150390625 -104.41292572021484 46.0 138 144 147
387.68536376953125 -109.5569076538086 46.0 149 156 159
388.66778564453125 -198.88270568847656 46.0 141 161 166
389.75775146484375 -195.04689025878906 46.0 142 157 165
389.75775146484375 -195.04689025878906 46.0 142 157 165
391.9190673828125 -136.72964477539062 45.0 114 135 137
392.0246276855469 -179.62246704101562 46.0 97 113 116
392.8302307128906 -191.19532775878906 46.0 130 148 151
393.0711364746094 -104.20611572265625 45.0 144 158 159
394.33416748046875 -134.88107299804688 46.0 103 119 117
394.4295349121094 -111.74020385742188 59.0 152 161 170
395.44415283203125 -201.20785522460938 46.0 107 125 127
395.44415283203125 -201.20785522460938 46.0 107 125 127
395.6518859863281 -208.93211364746094 46.0 122 138 155
395.8001403808594 -216.9143829345703 46.0 108 101 80
396.05810546875 -205.06846618652344 46.0 101 125 138
396.06707763671875 -143.91461181640625 46.0 104 118 119
397.14215087890625 -71.82746124267578 46.0 83 99 102
397.45745849609375 -136.54893493652344 46.0 104 120 121
398.27349853515625 -38.793678283691406 45.0 143 156 164
398.5684509277344 -103.92713928222656 46.0 73 87 86
399.89215087890625 -103.67267608642578 46.0 75 89 88
400.1346740722656 -205.80804443359375 46.0 131 150 161
400.6525573730469 -153.53903198242188 46.0 144 157 165
401.1714782714844 -42.97821044921875 46.0 100 122 122
401.4024658203125 -184.68939208984375 46.0 139 154 160
401.5648498535156 -57.984649658203125 46.0 127 145 143
401.59130859375 -111.27445983886719 46.0 144 157 163
401.8264465332031 -181.626953125 46.0 117 132 138
402.020751953125 -96.87715911865234 46.0 75 91 87
402.90625 -135.9957275390625 45.0 96 116 114
402.90625 -135.9957275390625 45.0 96 116 114
403.05810546875 -174.36053466796875 46.0 60 79 68
403.791259765625 -192.34628295898438 46.0 137 150 156
404.2155456542969 -201.8880615234375 46.0 98 114 115
404.3627014160156 -179.4971466064453 46.0 107 123 124
404.3627014160156 -179.4971466064453 46.0 107 123 124
405.7723388671875 -103.57689666748047 46.0 86 100 99
406.5388488769531 -181.65960693359375 46.0 113 124 129
407.3938293457031 -110.69246673583984 46.0 148 159 166
408.0953063964844 -136.4115753173828 46.0 99 115 116
408.39764404296875 -167.81101989746094 40.0 146 161 169
408.56689453125 -174.45277404785156 46.0 82 96 93
408.86138916015625 -74.35157012939453 46.0 82 98 99
409.6174011230469 -208.6421356201172 46.0 138 152 165
409.6174011230469 -208.6421356201172 46.0 138 152 165
409.6349182128906 -179.80006408691406 46.0 93 109 108
409.67254638671875 -105.7120590209961 46.0 116 129 133
410.2832336425781 -131.80419921875 46.0 136 151 164
410.2832336425781 -131.80419921875 46.0 136 151 164
411.1355895996094 -156.8718719482422 46.0 144 155 159
411.5318603515625 -201.62132263183594 46.0 93 109 114
411.748291015625 -102.85454559326172 46.0 47 61 60
413.43402099609375 -110.59052276611328 46.0 141 153 162
415.4772644042969 -139.63929748535156 46.0 126 149 153
416.27105712890625 -100.03260040283203 45.0 116 134 139
419.21099853515625 -186.57589721679688 46.0 140 155 161
419.2118225097656 -176.67788696289062 46.0 106 119 121
419.28643798828125 -66.31639862060547 46.0 150 168 170
419.55694580078125 -102.65046691894531 46.0 25 36 34
420.9254150390625 -138.47885131835938 46.0 144 157 163
421.189453125 -174.1489715576172 45.0 53 72 68
421.36029052734375 -99.74043273925781 46.0 121 132 139
423.1835632324219 -179.22369384765625 46.0 97 116 116
423.45684814453125 -67.3485336303711 45.0 120 136 137
424.68695068359375 -149.36712646484375 45.0 60 76 68
424.7503356933594 -96.94499969482422 45.0 44 61 51
425.0105285644531 -153.8775634765625 46.0 106 120 112
425.0235595703125 -171.35479736328125 46.0 88 104 102
425.7116394042969 -167.776123046875 46.0 95 108 112
426.24554443359375 -109.74311065673828 46.0 150 163 169
427.16949462890625 -73.06962585449219 45.0 95 106 108
427.18890380859375 -85.82852172851562 46.0 101 119 115
428.3260803222656 -232.9513702392578 45.0 98 98 94
428.3260803222656 -232.9513702392578 45.0 98 98 94
429.33343505859375 -61.27510070800781 45.0 121 138 144
429.5594482421875 -96.70763397216797 45.0 54 69 57
430.28607177734375 -185.995849609375 46.0 138 153 163
430.6217346191406 -69.12747955322266 45.0 64 78 75
430.6446228027344 -146.70449829101562 46.0 83 102 100
431.62554931640625 -109.74002075195312 45.0 145 158 164
431.6298828125 -28.957368850708008 45.0 97 46 28
433.0052185058594 -183.46522521972656 46.0 129 145 153
433.9352111816406 -81.52723693847656 55.0 43 61 57
434.9852600097656 -95.65545654296875 45.0 75 91 87
436.8014221191406 -58.965904235839844 45.0 148 163 171
437.12176513671875 -151.64076232910156 46.0 140 159 159
437.12176513671875 -151.64076232910156 46.0 140 159 159
437.8701171875 -69.25392150878906 58.0 50 72 56
437.8706970214844 -69.16512298583984 58.0 50 72 56
438.4248962402344 -62.00656509399414 45.0 102 121 116
441.3085021972656 -84.38721466064453 45.0 150 171 169
444.1711120605469 -47.206783294677734 45.0 145 158 167
444.4688415527344 -93.4740219116211 41.0 69 84 90
444.9746398925781 -105.91921997070312 65.0 149 157 169
445.45111083984375 -171.89247131347656 58.0 15 25 14
447.1609191894531 -95.4486083984375 40.0 101 123 125
447.9134826660156 -137.74168395996094 46.0 145 163 170
448.4365234375 -172.94143676757812 46.0 11 23 13
450.3351745605469 -32.36862564086914 45.0 169 168 175
450.8551940917969 -65.3758316040039 45.0 136 149 153
452.4926452636719 -47.3339729309082 45.0 137 155 158
453.3124084472656 -68.05473327636719 45.0 124 144 144
453.8199157714844 -92.66838073730469 57.0 145 160 168
455.640625 -164.56558227539062 45.0 111 125 124
457.5044860839844 -31.682252883911133 45.0 81 66 58
457.8640441894531 -94.65003967285156 45.0 150 166 171
458.6206359863281 -151.00669860839844 45.0 104 122 125
459.3823547363281 -25.004199981689453 44.0 91 61 47
462.0204162597656 -58.72969055175781 45.0 140 155 163
462.3035888671875 -46.80095291137695 45.0 145 159 162
462.47845458984375 -75.93134307861328 45.0 134 150 151
462.8890075683594 -84.53916931152344 45.0 125 136 138
462.8890075683594 -84.53916931152344 45.0 125 136 138
463.165283203125 -94.9697265625 45.0 131 150 157
464.6511535644531 -150.0192413330078 45.0 71 78 79
464.6528625488281 -66.74352264404297 45.0 136 149 155
464.99652099609375 -31.586910247802734 45.0 92 70 68
464.99652099609375 -31.586910247802734 45.0 92 70 68
468.4546203613281 -90.07489776611328 61.0 90 109 109
468.55731201171875 -94.0577621459961 45.0 104 127 126
469.74676513671875 -46.40184020996094 45.0 144 157 161
470.0819091796875 -59.81406021118164 45.0 150 167 175
471.0345764160156 -91.3061294555664 45.0 144 162 163
471.0345764160156 -91.3061294555664 45.0 144 162 163
474.9697570800781 -93.14501953125 45.0 54 69 75
475.20623779296875 -203.90626525878906 45.0 126 145 161
476.69189453125 -59.078792572021484 45.0 150 166 174
478.5721130371094 -201.9217529296875 45.0 138 155 165
478.99249267578125 -91.53504943847656 45.0 112 128 125
479.94451904296875 -204.95242309570312 45.0 131 150 161
480.7131042480469 -104.17072296142578 45.0 157 168 177
481.0559997558594 -30.542566299438477 45.0 65 28 10
481.4388427734375 -198.8585205078125 46.0 92 106 102
482.0666809082031 -93.77767944335938 45.0 70 86 83
482.7144470214844 -58.639217376708984 45.0 149 164 172
482.8744201660156 -71.80134582519531 45.0 110 126 122
482.9905700683594 -132.93783569335938 45.0 146 156 165
483.75592041015625 -106.31877136230469 45.0 152 165 171
486.2437438964844 -103.31886291503906 45.0 115 124 124
491.23553466796875 -103.59331512451172 45.0 134 143 143
491.2701721191406 -92.84518432617188 45.0 139 160 155
494.23223876953125 -135.0540008544922 43.0 121 138 144
498.1529235839844 -49.52616882324219 45.0 142 159 164
502.7329406738281 -203.13926696777344 45.0 138 158 162
503.88592529296875 -175.40084838867188 45.0 129 142 146
508.1640930175781 -91.98759460449219 45.0 72 85 89
509.2879333496094 -174.43922424316406 70.0 136 154 157
511.50653076171875 -159.91371154785156 46.0 141 157 162
512.7910766601562 -184.3470001220703 45.0 141 157 160
513.9024658203125 -91.37822723388672 45.0 67 78 80
514.5553588867188 -113.98640441894531 45.0 157 175 175
515.0652465820312 -150.8108367919922 45.0 120 133 137
516.390380859375 -137.2567138671875 45.0 118 134 133
517.6527709960938 -80.51289367675781 45.0 70 86 87
517.9630126953125 -185.22483825683594 46.0 8 21 13
517.9834594726562 -65.41743469238281 45.0 143 160 166
517.9834594726562 -65.41743469238281 45.0 143 160 166
517.9834594726562 -65.41743469238281 45.0 143 160 166
517.9851684570312 -117.83747100830078 45.0 104 124 112
517.9851684570312 -117.83747100830078 45.0 104 124 112
518.3587646484375 -199.5180206298828 46.0 154 165 169
518.5292358398438 -131.69369506835938 45.0 50 64 61
518.5292358398438 -131.69369506835938 45.0 50 64 61
518.8650512695312 -147.8443145751953 45.0 99 113 109
518.8650512695312 -147.8443145751953 45.0 99 113 109
519.5414428710938 -146.9984588623047 58.0 84 97 83
520.4011840820312 -153.46395874023438 45.0 142 158 163
520.4444580078125 -181.0695037841797 45.0 15 28 16
520.5601196289062 -161.74151611328125 45.0 139 153 154
521.2550048828125 -43.69482421875 45.0 72 86 83
521.6818237304688 -133.59788513183594 45.0 84 97 96
522.453857421875 -113.65289306640625 45.0 149 166 176
522.5492553710938 -178.50070190429688 44.0 2 21 8
522.8404541015625 -137.56549072265625 45.0 54 61 62
522.8767700195312 -26.907672882080078 46.0 171 171 171
523.8632202148438 -211.69798278808594 45.0 84 86 65
523.8632202148438 -211.69798278808594 45.0 84 86 65
524.2548217773438 -150.6475830078125 42.0 138 151 160
524.2548217773438 -150.6475830078125 45.0 138 151 160
524.8392944335938 -91.3531494140625 45.0 111 130 128
525.1323852539062 -35.86442947387695 46.0 139 149 149
525.1488647460938 -197.67176818847656 45.0 3 18 6
525.1488647460938 -197.67176818847656 45.0 3 18 6
525.576904296875 -211.9245147705078 45.0 88 90 69
525.576904296875 -211.9245147705078 45.0 88 90 69
525.9058227539062 -175.83531188964844 47.0 0 18 6
526.2509765625 -130.25518798828125 45.0 36 45 43
526.6543579101562 -127.04396057128906 45.0 51 72 68
526.91796875 -150.2970733642578 45.0 151 164 172
527.0303955078125 -145.63385009765625 45.0 115 132 128
527.31787109375 -136.58853149414062 45.0 131 147 143
527.97607421875 -115.64161682128906 45.0 64 87 84
528.60888671875 -34.3775749206543 45.0 125 125 125
529.36083984375 -143.78489685058594 45.0 112 128 125
529.9502563476562 -27.159700393676758 46.0 162 158 148
530.41357421875 -173.84335327148438 46.0 14 36 22
531.2013549804688 -128.5218963623047 45.0 53 73 69
531.44580078125 -91.31182098388672 45.0 22 40 38
531.8960571289062 -151.0406494140625 45.0 155 167 176
532.7698364257812 -139.4124298095703 45.0 0 18 20
532.9354248046875 -186.0629119873047 45.0 48 64 65
534.6550903320312 -121.98455810546875 45.0 107 120 122
535.4113159179688 -188.2577362060547 45.0 148 159 166
536.0316772460938 -196.39276123046875 45.0 12 27 17
536.060791015625 -141.28021240234375 45.0 96 114 115
536.07568359375 -90.26905822753906 45.0 75 93 96
536.5690307617188 -202.60784912109375 45.0 123 141 144
536.81494140625 -116.18083953857422 45.0 87 101 94
537.005126953125 -133.62368774414062 45.0 132 150 151
537.4483642578125 -120.15755462646484 45.0 113 126 126
537.4483642578125 -120.15755462646484 45.0 113 126 126
539.080078125 -210.9920196533203 45.0 88 95 73
539.7068481445312 -66.1383056640625 45.0 148 163 169
540.510986328125 -187.7896728515625 45.0 138 153 161
540.705078125 -149.86770629882812 45.0 114 132 134
541.0001220703125 -80.20035552978516 45.0 149 165 170
542.5084228515625 -196.31329345703125 48.0 26 52 41
543.5791625976562 -160.61154174804688 45.0 128 144 145
543.7604370117188 -147.34762573242188 45.0 54 73 69
545.7940673828125 -201.689697265625 45.0 140 158 165
546.0166015625 -131.78379821777344 45.0 142 158 163
546.2742919921875 -153.83737182617188 45.0 147 162 170
546.4619750976562 -145.26712036132812 45.0 143 165 167
548.3507080078125 -117.12602233886719 45.0 152 165 174
548.9213256835938 -116.43855285644531 45.0 153 166 177
548.9213256835938 -116.43855285644531 45.0 153 166 177
549.6093139648438 -184.76080322265625 45.0 140 158 161
551.7245483398438 -147.785888671875 45.0 149 167 169
552.0789794921875 -204.16085815429688 38.0 149 166 171
552.1602783203125 -133.15444946289062 45.0 145 160 168
552.4088134765625 -127.06867218017578 45.0 152 162 169
554.340087890625 -38.199153900146484 45.0 81 41 28
554.5183715820312 -124.40323638916016 45.0 157 166 164
555.5806884765625 -165.4270477294922 45.0 164 176 176
555.65869140625 -95.19454956054688 45.0 65 40 37
555.65869140625 -95.19454956054688 45.0 65 40 37
556.091064453125 -80.26424407958984 45.0 105 54 45
559.1547241210938 -107.56512451171875 45.0 107 54 39
560.591064453125 -247.9202423095703 45.0 101 99 79
560.6307373046875 -95.49862670898438 45.0 112 49 34
567.7696533203125 -212.33189392089844 45.0 116 111 89
569.0110473632812 -216.94703674316406 45.0 107 102 80
569.9939575195312 -28.072372436523438 47.0 169 173 174
571.7542724609375 -111.78097534179688 45.0 117 57 37
572.1921997070312 -210.3154754638672 45.0 95 86 59
572.297607421875 -179.03224182128906 45.0 104 97 73
572.716064453125 -200.42739868164062 45.0 101 92 62
573.0487670898438 -210.20022583007812 45.0 99 90 62
602.6008911132812 -144.1680145263672 45.0 107 101 75
605.9927368164062 -73.90090942382812 47.0 118 63 48
606.3257446289062 -123.92977905273438 45.0 119 107 85
606.3257446289062 -123.92977905273438 45.0 119 107 85
606.744140625 -178.29226684570312 45.0 100 94 66
606.8540649414062 -123.68704223632812 45.0 119 107 85
607.6224365234375 -111.43860626220703 46.0 110 57 42
608.065185546875 -191.8515167236328 50.0 105 94 65
608.2154541015625 -151.8185272216797 45.0 114 103 76
608.5355224609375 -119.49407196044922 45.0 102 50 30
608.8016967773438 -62.93391799926758 47.0 115 62 47
608.8016967773438 -62.93391799926758 47.0 115 62 47
609.5508422851562 -70.95030975341797 47.0 119 64 43
609.5508422851562 -70.95030975341797 47.0 119 64 43
610.579833984375 -131.73907470703125 46.0 124 112 90
610.773193359375 -138.95941162109375 45.0 104 100 69
611.3679809570312 -106.68028259277344 46.0 95 56 40
613.6434326171875 -134.51365661621094 45.0 59 54 28
613.6856079101562 -153.96859741210938 45.0 81 67 45
613.6856079101562 -153.96859741210938 45.0 81 67 45
613.779052734375 -173.03880310058594 45.0 69 65 41
613.779052734375 -173.03880310058594 45.0 69 65 41
613.9172973632812 -186.0019073486328 46.0 81 77 50
614.4046020507812 -129.53021240234375 46.0 90 87 67
614.4046020507812 -129.53021240234375 46.0 90 87 67
614.6806030273438 -122.79376220703125 46.0 86 77 51
614.6806030273438 -122.79376220703125 46.0 86 77 51
614.7503051757812 -162.48464965820312 45.0 118 114 81
615.8916625976562 -176.15748596191406 45.0 95 95 70
616.4782104492188 -132.85989379882812 46.0 108 103 81
618.7645263671875 -127.28604125976562 46.0 109 104 83
618.9957275390625 -187.8379364013672 45.0 92 90 65
620.4176025390625 -162.33218383789062 46.0 99 96 76
622.6641235351562 -152.9917755126953 40.0 99 96 76
622.8319091796875 -189.73973083496094 41.0 81 83 65
626.8433837890625 -124.1016616821289 46.0 92 93 79
628.686767578125 -232.4158477783203 46.0 75 75 54
632.8992309570312 -118.95213317871094 46.0 94 95 84
633.3252563476562 -77.04984283447266 48.0 105 111 93
634.2985229492188 -88.93016052246094 47.0 109 108 94
634.3531494140625 -92.93753814697266 47.0 105 106 94
634.3914794921875 -232.11630249023438 46.0 88 90 72
635.3211669921875 -105.06610870361328 47.0 100 101 87
635.8211669921875 -228.03411865234375 46.0 81 83 63
