ply
format ascii 1.0
element vertex 68
property float x
property float y
property float z
property uchar red
property uchar green
property uchar blue
end_header
135.62506103515625 -258.7329406738281 1322.0 129 130 123
163.56858825683594 -13.334346771240234 77.0 108 105 108
189.77967834472656 -250.1822052001953 33.0 135 141 122
251.1829833984375 -218.2447052001953 65.0 61 70 43
271.2331237792969 -155.99058532714844 46.0 77 78 66
273.1042175292969 -217.81314086914062 204.0 54 53 44
278.07049560546875 -203.96661376953125 77.0 96 82 63
281.7154235839844 -197.94183349609375 66.0 74 64 53
283.8209228515625 -149.12472534179688 60.0 100 102 79
285.8997802734375 -201.02296447753906 96.0 93 93 95
288.9142150878906 -5.792191982269287 179.0 102 111 112
293.224365234375 -169.14918518066406 61.0 195 86 58
293.864501953125 -173.1395263671875 60.0 186 72 44
296.9893798828125 -163.03329467773438 61.0 176 86 77
297.6954650878906 -228.01649475097656 60.0 110 129 127
297.6954650878906 -228.01649475097656 60.0 110 129 127
297.8774108886719 -174.27793884277344 61.0 197 84 51
298.10601806640625 -196.13978576660156 60.0 165 183 188
298.5143737792969 -4.450910568237305 137.0 109 110 103
302.3324279785156 -168.8479766845703 60.0 198 90 54
302.6666564941406 -242.6548614501953 60.0 162 183 178
302.97393798828125 -233.5997772216797 59.0 138 158 162
303.6144714355469 -162.4717254638672 60.0 119 59 44
308.3758544921875 -167.78369140625 60.0 192 89 53
315.4012451171875 -229.37831115722656 49.0 91 121 116
316.4608154296875 -169.34278869628906 80.0 74 49 48
318.3948974609375 -156.4500274658203 60.0 39 28 30
318.3948974609375 -156.4500274658203 60.0 39 28 30
321.15972900390625 -168.78231811523438 89.0 22 60 101
321.18121337890625 -168.57321166992188 89.0 22 60 101
322.0031433105469 -215.3209228515625 60.0 177 159 77
324.0586242675781 -172.5314178466797 59.0 22 91 160
329.9125061035156 -207.38607788085938 59.0 169 157 64
332.43096923828125 -143.56915283203125 60.0 174 194 196
332.43096923828125 -143.56915283203125 60.0 174 194 196
334.0091552734375 -175.2799530029297 61.0 14 82 162
336.7169189453125 -233.47323608398438 60.0 155 161 137
337.89361572265625 -167.42845153808594 60.0 21 82 139
339.9587707519531 -152.52951049804688 50.0 164 189 192
340.00897216796875 -156.5164031982422 50.0 165 192 197
340.1806335449219 -217.6522216796875 67.0 174 163 61
340.571533203125 -204.30477905273438 59.0 180 163 51
340.571533203125 -204.30477905273438 59.0 180 163 51
340.693603515625 -163.4142303466797 60.0 39 50 48
340.693603515625 -163.4142303466797 60.0 39 50 48
341.18157958984375 -138.95205688476562 60.0 168 192 198
341.18157958984375 -138.95205688476562 60.0 168 192 198
341.3476867675781 -162.79092407226562 59.0 71 89 85
341.3476867675781 -162.79092407226562 59.0 71 89 85
344.6810302734375 -164.2102813720703 39.0 38 49 51
350.3738098144531 -164.18759155273438 46.0 23 42 31
362.660888671875 -170.57110595703125 35.0 163 188 191
363.59930419921875 -193.56150817871094 60.0 32 43 43
364.9275207519531 -139.28184509277344 60.0 165 189 200
366.8609313964844 -185.5006866455078 29.0 165 187 193
368.49267578125 -231.89505004882812 60.0 88 122 144
370.3229675292969 -146.8926544189453 44.0 163 188 193
375.6700744628906 -165.79251098632812 60.0 159 186 191
379.1140441894531 -257.2200927734375 24.0 106 122 119
390.2540588378906 -247.52215576171875 21.0 124 135 133
392.3355407714844 -206.31613159179688 58.0 54 49 30
592.1267700195312 -244.91644287109375 23.0 129 148 139
601.042724609375 -213.27122497558594 73.0 243 255 254
606.8956298828125 -273.4701232910156 87.0 160 180 182
612.2923583984375 -152.537109375 105.0 250 255 251
615.3917846679688 -183.58367919921875 103.0 250 255 251
615.3927612304688 -225.9066925048828 103.0 217 255 255
615.4182739257812 -191.24163818359375 103.0 250 255 251
