ply
format ascii 1.0
element vertex 319
property float x
property float y
property float z
property uchar red
property uchar green
property uchar blue
end_header
356.696044921875 -138.38763427734375 22.0 162 178 177
388.9738464355469 -228.5615234375 21.0 15 20 10
390.9600830078125 -234.54872131347656 21.0 2 7 0
394.85198974609375 -135.322265625 26.0 113 99 73
432.67822265625 -101.53092193603516 20.0 121 112 86
439.4427185058594 -118.40203857421875 20.0 121 120 100
439.4427185058594 -118.40203857421875 20.0 121 120 100
441.0101623535156 -122.14039611816406 20.0 117 107 89
445.65704345703125 -116.59253692626953 20.0 129 128 110
448.7136535644531 -119.4406967163086 20.0 20 31 6
449.0405578613281 -128.8336181640625 20.0 74 77 53
449.0405578613281 -128.8336181640625 20.0 74 77 53
449.14312744140625 -111.42143249511719 20.0 47 44 26
449.88714599609375 -163.46925354003906 20.0 128 123 95
451.5390319824219 -114.65184020996094 20.0 29 35 20
451.5390319824219 -114.65184020996094 20.0 29 35 20
453.11383056640625 -121.78211975097656 20.0 98 91 70
453.11383056640625 -121.78211975097656 20.0 98 91 70
453.3409729003906 -139.2317657470703 20.0 15 21 4
455.0400390625 -133.4394073486328 20.0 71 72 65
455.9579162597656 -111.55966186523438 20.0 25 31 21
456.0619812011719 -132.6539306640625 20.0 31 33 19
459.89794921875 -122.07202911376953 20.0 111 106 87
460.7041931152344 -117.85116577148438 20.0 24 30 17
461.8272399902344 -256.4364318847656 80.0 98 91 68
465.64886474609375 -144.49386596679688 20.0 101 103 84
465.7969970703125 -110.71726989746094 20.0 119 119 96
465.7969970703125 -110.71726989746094 20.0 119 119 96
466.2078552246094 -160.9174041748047 20.0 29 35 20
466.82177734375 -155.350830078125 20.0 24 30 15
467.02667236328125 -166.85877990722656 20.0 122 115 96
468.8204650878906 -163.08309936523438 20.0 63 64 48
469.0998840332031 -118.06486511230469 20.0 67 62 45
469.9246520996094 -127.36014556884766 20.0 131 122 99
470.4923095703125 -112.38764190673828 20.0 48 50 27
471.8088073730469 -161.4701385498047 20.0 24 32 16
471.8088073730469 -161.4701385498047 20.0 24 32 16
472.7948303222656 -198.84609985351562 20.0 121 111 89
477.5808410644531 -134.30142211914062 20.0 90 89 74
481.7950134277344 -139.39205932617188 20.0 19 27 12
483.4051818847656 -143.4376678466797 20.0 128 122 105
483.82598876953125 -137.41957092285156 20.0 124 132 117
485.8201599121094 -139.84197998046875 20.0 23 31 15
486.69140625 -149.98239135742188 20.0 128 116 96
490.093505859375 -194.8060760498047 20.0 99 89 66
492.21966552734375 -131.8134765625 20.0 29 35 20
492.78460693359375 -197.44651794433594 20.0 118 104 87
493.5813903808594 -158.03086853027344 20.0 49 54 42
493.5813903808594 -158.03086853027344 20.0 49 54 42
494.86297607421875 -147.93380737304688 20.0 121 105 82
495.1419982910156 -142.32083129882812 20.0 130 125 106
495.1717834472656 -134.14895629882812 20.0 63 76 62
495.1717834472656 -134.14895629882812 20.0 63 76 62
496.39642333984375 -164.2283935546875 20.0 118 106 82
496.7974853515625 -155.0173797607422 20.0 104 105 85
497.1738586425781 -160.6912078857422 20.0 25 32 24
498.6122741699219 -143.89881896972656 20.0 82 71 44
499.7364196777344 -149.92112731933594 20.0 130 125 103
500.0687255859375 -132.4597625732422 20.0 24 30 17
500.0687255859375 -132.4597625732422 20.0 24 30 17
500.1471252441406 -143.5589141845703 20.0 81 72 43
500.1471252441406 -143.5589141845703 20.0 81 72 43
501.5386657714844 -197.05580139160156 20.0 109 107 83
501.706298828125 -143.81301879882812 20.0 97 89 59
502.8100891113281 -165.8336944580078 20.0 126 118 102
502.8141174316406 -199.71800231933594 24.0 109 107 85
508.8733825683594 -141.83946228027344 20.0 21 32 13
509.6164855957031 -146.91017150878906 20.0 50 56 37
509.6164855957031 -146.91017150878906 20.0 50 56 37
511.83819580078125 -149.6738739013672 20.0 117 107 91
512.45458984375 -153.08306884765625 20.0 105 106 90
512.45458984375 -153.08306884765625 20.0 105 106 90
514.3870849609375 -166.3175506591797 20.0 112 105 77
516.6161499023438 -193.45140075683594 20.0 49 49 27
520.0549926757812 -138.97230529785156 20.0 176 204 200
521.7476806640625 -155.84738159179688 20.0 178 197 188
523.0535888671875 -165.4394073486328 20.0 159 175 167
524.4872436523438 -191.6436309814453 20.0 153 171 176
526.8163452148438 -36.332191467285156 20.0 45 79 83
536.4492797851562 -45.98594284057617 20.0 124 152 146
536.6981811523438 -211.23654174804688 20.0 98 121 141
537.4918823242188 -130.36270141601562 20.0 0 7 0
537.4918823242188 -130.36270141601562 20.0 0 7 0
537.6148681640625 -39.446067810058594 20.0 190 205 215
538.623779296875 -116.23224639892578 20.0 0 9 1
538.623779296875 -116.23224639892578 20.0 0 9 1
539.2402954101562 -128.25643920898438 20.0 129 155 151
540.3482055664062 -24.600061416625977 20.0 156 176 181
541.9698486328125 -37.05632781982422 20.0 167 182 190
541.9698486328125 -37.05632781982422 20.0 167 182 190
542.0017700195312 -43.229244232177734 20.0 153 176 180
542.193603515625 -133.42611694335938 20.0 203 214 216
542.5509643554688 -123.00652313232422 22.0 173 196 191
542.7177124023438 -26.81993293762207 20.0 151 176 182
544.73095703125 -135.82334899902344 20.0 160 175 183
545.0922241210938 -24.71019744873047 20.0 150 174 183
545.0922241210938 -24.71019744873047 20.0 150 174 183
545.8968505859375 -3.39337420463562 22.0 153 171 174
545.8968505859375 -3.39337420463562 20.0 153 171 174
546.1221313476562 -46.30160903930664 20.0 3 28 32
546.5717163085938 -227.98287963867188 31.0 114 111 92
546.640869140625 -174.66067504882812 20.0 100 113 115
546.8007202148438 -140.77029418945312 20.0 66 91 92
546.8770141601562 -39.485408782958984 20.0 178 198 205
546.8770141601562 -39.485408782958984 20.0 178 198 205
547.1297607421875 -192.54608154296875 20.0 60 87 88
547.6647338867188 -179.7657470703125 20.0 125 136 140
547.9716186523438 -198.30113220214844 20.0 58 85 117
548.4185180664062 -5.612525463104248 20.0 152 174 178
548.5859985351562 -158.92404174804688 20.0 78 107 112
549.2948608398438 -224.8970184326172 20.0 111 107 94
549.4266967773438 -41.74446105957031 20.0 153 175 182
550.0023803710938 -31.86336898803711 20.0 41 87 77
551.6512451171875 -3.2819478511810303 20.0 157 174 180
551.879150390625 -123.32707977294922 20.0 153 175 184
552.5188598632812 -169.3056640625 20.0 147 171 177
552.5188598632812 -169.3056640625 20.0 147 171 177
552.684814453125 -182.47976684570312 20.0 143 165 171
552.7022094726562 -250.4207763671875 48.0 64 73 57
552.8263549804688 -158.4759979248047 20.0 66 86 95
552.8966674804688 -176.51998901367188 20.0 95 117 124
553.4475708007812 -178.2874755859375 20.0 108 121 125
553.6713256835938 -114.68354034423828 20.0 171 198 198
554.3843383789062 -5.689895153045654 20.0 153 172 182
554.3941040039062 -142.04624938964844 20.0 150 175 181
554.3941040039062 -142.04624938964844 20.0 150 175 181
554.7347412109375 -212.9952850341797 20.0 84 114 135
554.8456420898438 -45.5388298034668 20.0 69 96 99
556.19091796875 -193.16009521484375 20.0 151 180 185
556.4014282226562 -202.09739685058594 20.0 152 170 173
557.14404296875 -23.993330001831055 20.0 160 175 181
557.1973876953125 -118.34854125976562 20.0 7 24 13
557.3051147460938 -124.8391342163086 20.0 17 39 45
557.3051147460938 -124.8391342163086 20.0 17 39 45
557.748779296875 -40.76343536376953 20.0 153 175 184
557.9066162109375 -28.479408264160156 20.0 157 174 184
558.5454711914062 -178.41598510742188 20.0 108 131 128
559.9391479492188 -121.74921417236328 20.0 153 172 170
559.9391479492188 -121.74921417236328 20.0 153 172 170
560.0022583007812 -5.595672130584717 20.0 152 174 181
560.0196533203125 -26.122743606567383 20.0 152 174 183
560.2235717773438 -22.241825103759766 20.0 170 183 189
560.3800048828125 -6.102465629577637 20.0 153 175 182
560.89111328125 -79.97259521484375 20.0 154 173 183
560.89111328125 -79.97259521484375 20.0 154 173 183
560.9367065429688 -40.35087585449219 20.0 175 199 207
561.208740234375 -31.875307083129883 20.0 147 175 175
561.208740234375 -31.875307083129883 20.0 147 175 175
562.5684204101562 -174.67568969726562 105.0 144 169 170
562.5684204101562 -174.67568969726562 105.0 144 169 170
562.7706298828125 -194.025146484375 20.0 84 111 119
562.8565673828125 -125.01277923583984 20.0 0 8 11
562.8565673828125 -125.01277923583984 20.0 0 8 11
562.8900756835938 -119.74899291992188 20.0 7 19 16
563.5577392578125 -168.4173126220703 20.0 169 192 194
565.3916625976562 -224.5841064453125 20.0 106 100 71
565.5968017578125 -155.22650146484375 20.0 119 144 143
565.5968017578125 -155.22650146484375 20.0 119 144 143
566.1854858398438 -42.43717956542969 20.0 161 176 184
566.6101684570312 -114.83264923095703 20.0 176 204 202
567.7197265625 -123.34852600097656 20.0 17 26 27
567.78369140625 -178.13021850585938 20.0 165 183 188
567.8897705078125 -199.92259216308594 20.0 150 170 177
568.1438598632812 -226.2496337890625 28.0 115 106 83
568.23095703125 -178.0541229248047 20.0 161 181 188
569.1090698242188 -191.63563537597656 20.0 16 34 37
569.1090698242188 -191.63563537597656 20.0 16 34 37
569.24169921875 -161.84365844726562 20.0 112 135 135
569.8336791992188 -230.0451202392578 20.0 125 116 95
570.1345825195312 -148.8889923095703 16.0 147 170 174
570.8369750976562 -32.46824264526367 20.0 109 150 147
570.987548828125 -122.22784423828125 20.0 104 120 121
571.039306640625 -224.46676635742188 20.0 107 98 68
571.0821533203125 -40.67755126953125 20.0 165 182 190
571.1611938476562 -159.28402709960938 20.0 166 198 193
571.1611938476562 -159.28402709960938 20.0 166 198 193
571.8312377929688 -118.74032592773438 20.0 15 28 16
572.5376586914062 -133.2206573486328 20.0 198 214 211
572.8244018554688 -125.171875 20.0 176 185 185
572.9149169921875 -6.182580947875977 20.0 155 175 184
573.3488159179688 -119.92019653320312 20.0 0 9 8
574.05419921875 -156.8088836669922 20.0 151 173 177
574.05419921875 -156.8088836669922 20.0 151 173 177
574.0897216796875 -41.072078704833984 20.0 157 177 186
574.9019165039062 -117.50261688232422 20.0 0 4 7
575.0414428710938 -122.06373596191406 20.0 123 129 139
575.2252807617188 -39.63803482055664 20.0 122 139 151
575.4437255859375 -176.21817016601562 20.0 12 36 40
575.9475708007812 -43.42007827758789 20.0 155 175 182
576.0828247070312 -183.9907684326172 20.0 150 167 175
576.2249755859375 -159.0931854248047 21.0 154 174 178
576.2249755859375 -159.0931854248047 20.0 154 174 178
576.834228515625 -40.551578521728516 20.0 167 182 192
577.52392578125 -5.475746154785156 20.0 158 175 185
577.9588623046875 -118.73788452148438 20.0 104 103 110
577.9588623046875 -118.73788452148438 20.0 104 103 110
578.073974609375 -124.3088607788086 20.0 0 3 5
578.8789672851562 -32.168556213378906 20.0 48 75 78
578.8789672851562 -32.168556213378906 20.0 48 75 78
579.1968383789062 -193.48829650878906 20.0 167 189 198
579.5900268554688 -39.8507194519043 20.0 152 165 178
579.7269287109375 -179.88137817382812 20.0 165 182 190
580.15625 -175.88043212890625 20.0 38 63 65
580.76708984375 -117.45156860351562 20.0 7 25 21
581.014404296875 -120.9580078125 20.0 6 27 18
581.9503784179688 -166.5797119140625 20.0 153 176 180
582.2232666015625 -7.011798858642578 20.0 157 173 181
582.4765014648438 -174.6273193359375 20.0 102 127 133
582.4765014648438 -174.6273193359375 20.0 102 127 133
582.503662109375 -178.6280517578125 20.0 175 198 202
582.5682373046875 -173.40513610839844 20.0 118 142 148
582.98681640625 -5.561805725097656 74.0 159 174 182
582.9998779296875 -124.12673950195312 20.0 0 4 5
583.240478515625 -184.81312561035156 20.0 111 135 141
583.4612426757812 -8.528446197509766 74.0 157 173 181
584.9761352539062 -176.3761749267578 20.0 53 83 83
584.9761352539062 -176.3761749267578 20.0 53 83 83
585.830322265625 -137.14610290527344 20.0 27 46 58
585.9329223632812 -141.48651123046875 20.0 64 84 87
587.763916015625 -124.39956665039062 25.0 12 26 27
588.69873046875 -177.0325469970703 20.0 0 31 24
590.1797485351562 -132.45751953125 20.0 86 104 100
591.057861328125 -41.94366455078125 20.0 154 174 178
591.5441284179688 -22.120113372802734 20.0 179 194 207
591.6266479492188 -99.0933837890625 20.0 0 20 24
592.4151611328125 -115.54943084716797 20.0 57 86 89
592.4151611328125 -115.54943084716797 20.0 57 86 89
593.8638305664062 -137.50717163085938 20.0 158 181 178
593.9720458984375 -24.536996841430664 20.0 152 169 179
594.0833129882812 -194.63938903808594 20.0 168 188 190
596.81640625 -132.6731719970703 20.0 94 108 105
597.1663208007812 -39.11677551269531 81.0 9 36 39
597.6558227539062 -125.75704956054688 20.0 169 176 181
597.7305297851562 -114.02816009521484 20.0 163 188 189
597.788818359375 -194.9801483154297 20.0 154 185 192
599.3740234375 -7.473877429962158 20.0 153 172 182
599.3740234375 -7.473877429962158 20.0 153 172 182
599.3928833007812 -7.252635478973389 20.0 153 172 182
599.5579223632812 -24.83772087097168 20.0 153 170 185
599.5995483398438 -121.60159301757812 20.0 0 3 13
599.7824096679688 -46.716590881347656 20.0 153 175 182
600.7290649414062 -52.51386642456055 20.0 154 174 181
601.9312133789062 -38.48986053466797 20.0 157 177 184
602.52392578125 -195.43002319335938 20.0 138 168 182
602.52392578125 -195.43002319335938 20.0 138 168 182
602.9837646484375 -123.42781066894531 20.0 136 149 153
603.1553955078125 -108.88199615478516 20.0 177 190 194
603.3179931640625 -119.38272857666016 20.0 0 13 11
604.0422973632812 -133.45162963867188 20.0 194 208 209
604.5399169921875 -152.2342987060547 20.0 153 173 179
604.7033081054688 -176.88674926757812 20.0 131 161 161
605.0137939453125 -17.44911766052246 20.0 154 177 181
605.48828125 -116.39077758789062 20.0 0 7 2
606.0901489257812 -106.44998931884766 20.0 29 50 50
606.4192504882812 -225.49676513671875 20.0 113 104 74
606.8114013671875 -174.11746215820312 20.0 146 173 174
607.0008544921875 -180.300048828125 20.0 150 172 178
607.074951171875 -7.825048923492432 20.0 156 173 181
607.2302856445312 -135.68089294433594 20.0 161 189 185
607.6265258789062 -118.80044555664062 20.0 24 38 31
608.1372680664062 -218.56076049804688 20.0 76 77 63
608.3023071289062 -125.4700927734375 20.0 6 12 22
608.9317016601562 -108.90518951416016 20.0 0 5 7
609.604736328125 -9.916352272033691 20.0 155 175 182
610.6409301757812 -182.56082153320312 20.0 148 171 175
610.6500244140625 -189.0393524169922 20.0 148 168 175
611.0786743164062 -119.93724060058594 20.0 8 25 21
611.1537475585938 -223.59791564941406 20.0 115 104 82
611.635009765625 -216.5130615234375 20.0 178 191 199
611.635009765625 -216.5130615234375 20.0 178 191 199
611.635009765625 -216.5130615234375 20.0 178 191 199
612.1815185546875 -183.9911346435547 20.0 149 169 176
612.3810424804688 -113.42953491210938 20.0 137 148 152
612.836669921875 -53.44969940185547 20.0 160 178 183
613.4505615234375 -23.058837890625 20.0 157 174 182
613.9711303710938 -221.80294799804688 20.0 115 101 77
614.3638916015625 -108.205078125 20.0 0 17 17
614.3638916015625 -108.205078125 20.0 0 17 17
614.4452514648438 -176.4006805419922 20.0 151 168 176
615.2963256835938 -136.02760314941406 20.0 179 197 202
616.1539916992188 -171.1522979736328 19.0 148 171 177
616.5733032226562 -179.01971435546875 20.0 153 171 178
616.9500732421875 -117.61420440673828 20.0 16 37 33
617.7778930664062 -138.35057067871094 20.0 151 178 174
617.7778930664062 -138.35057067871094 20.0 151 178 174
617.9730834960938 -123.7369155883789 22.0 8 29 40
617.9891357421875 -193.7949676513672 20.0 144 166 172
618.6017456054688 -104.65263366699219 20.0 125 153 151
618.6017456054688 -104.65263366699219 20.0 125 153 151
619.56201171875 -183.44239807128906 20.0 146 168 175
619.769287109375 -126.95243835449219 20.0 154 165 174
620.0902099609375 -25.520456314086914 20.0 148 175 178
620.32421875 -195.96302795410156 20.0 137 171 179
620.4693603515625 -106.93122863769531 26.0 37 62 63
621.6719360351562 -176.1297149658203 20.0 153 173 179
621.9989624023438 -53.93609619140625 20.0 153 175 182
621.9989624023438 -53.93609619140625 21.0 153 175 182
621.9989624023438 -53.93609619140625 20.0 153 175 182
622.3026123046875 -139.92233276367188 20.0 18 45 50
622.6627197265625 -117.66410064697266 20.0 1 23 11
622.773193359375 -123.29617309570312 20.0 140 164 158
623.65478515625 -175.111083984375 20.0 150 172 178
623.65478515625 -175.111083984375 20.0 150 172 178
623.724365234375 -107.94519805908203 20.0 0 5 12
625.5767211914062 -120.15389251708984 20.0 12 24 17
625.5767211914062 -120.15389251708984 20.0 12 24 17
625.8108520507812 -222.6814422607422 21.0 105 100 83
625.91552734375 -126.55987548828125 20.0 0 7 1
626.3612060546875 -132.0580596923828 20.0 70 86 83
627.0244140625 -206.90135192871094 20.0 131 171 176
627.56689453125 -177.08612060546875 20.0 153 173 179
628.5975952148438 -117.90201568603516 20.0 7 20 10
628.8716430664062 -123.08927917480469 20.0 83 104 99
629.85595703125 -106.91144561767578 25.0 0 4 5
630.320068359375 -219.4529571533203 20.0 107 109 86
631.23388671875 -119.97087860107422 20.0 18 28 21
631.23388671875 -119.97087860107422 20.0 18 28 21
633.7659301757812 -122.94721984863281 20.0 26 43 34
635.0519409179688 -222.2356719970703 20.0 103 99 72
