ply
format ascii 1.0
element vertex 64
property float x
property float y
property float z
property uchar red
property uchar green
property uchar blue
end_header
72.12507629394531 -214.17160034179688 100.0 47 45 45
86.22035217285156 -269.9315185546875 162.0 107 128 123
132.10064697265625 -267.9662170410156 69.0 113 113 109
154.0966339111328 -260.1100158691406 15.0 77 89 86
158.461669921875 -240.7950897216797 49.0 133 152 152
172.879150390625 -241.44139099121094 44.0 129 146 136
178.41546630859375 -240.91114807128906 42.0 138 149 147
183.9365692138672 -241.11708068847656 40.0 130 140 129
190.98207092285156 -241.4920654296875 38.0 135 147 144
212.4448699951172 -240.85836791992188 33.0 137 151 152
220.885498046875 -240.94586181640625 32.0 137 147 138
230.94927978515625 -224.14634704589844 56.0 88 82 76
247.11631774902344 -208.1531982421875 142.0 37 38 33
252.42391967773438 -243.3839569091797 55.0 159 171 163
252.97926330566406 -137.39654541015625 84.0 53 52 39
255.6373291015625 -158.02183532714844 55.0 50 46 40
259.6735534667969 -145.71432495117188 55.0 45 52 46
260.5607604980469 -205.40521240234375 132.0 69 69 64
262.10577392578125 -217.40997314453125 55.0 64 81 77
269.0240478515625 -243.11061096191406 110.0 165 174 177
272.42437744140625 -167.4604034423828 116.0 165 59 28
274.7120666503906 -161.0760498046875 55.0 121 59 39
275.8202819824219 -230.7396697998047 54.0 29 44 29
276.0202941894531 -173.10882568359375 54.0 161 64 36
276.8179016113281 -205.65155029296875 54.0 159 185 181
276.8179016113281 -205.65155029296875 54.0 159 185 181
285.6120300292969 -215.52464294433594 83.0 153 175 182
287.2785339355469 -165.565185546875 56.0 154 68 33
287.2785339355469 -165.565185546875 56.0 154 68 33
287.3982238769531 -141.7327117919922 56.0 167 57 41
287.442138671875 -207.1529998779297 56.0 157 183 189
288.4474182128906 -231.09515380859375 55.0 54 69 61
297.7674865722656 -152.69293212890625 55.0 35 22 14
300.54241943359375 -200.13043212890625 55.0 149 133 64
311.888671875 -164.55003356933594 55.0 16 52 80
311.888671875 -164.55003356933594 55.0 16 52 80
312.1869812011719 -139.80189514160156 54.0 161 190 195
312.5697937011719 -139.53981018066406 54.0 161 190 195
315.66827392578125 -171.92637634277344 55.0 1 61 130
317.5889587402344 -227.55775451660156 51.0 19 32 13
318.59454345703125 -236.39822387695312 56.0 132 140 129
319.0175476074219 -165.08084106445312 55.0 28 69 119
321.0974426269531 -142.54176330566406 55.0 156 185 190
323.0075378417969 -134.32034301757812 56.0 156 185 194
323.1175842285156 -205.6472625732422 55.0 162 148 56
325.3323974609375 -193.5921630859375 41.0 66 80 77
328.93212890625 -161.16793823242188 51.0 23 32 30
330.1865234375 -154.7340545654297 55.0 43 64 59
331.6927795410156 -168.6230010986328 50.0 4 25 50
336.9445495605469 -168.52374267578125 48.0 162 178 179
337.542236328125 -144.21359252929688 55.0 173 188 196
337.55548095703125 -184.2918701171875 55.0 160 183 178
346.1184997558594 -129.5533905029297 41.0 162 186 192
352.58221435546875 -159.34457397460938 39.0 121 144 141
360.1899719238281 -163.074951171875 56.0 164 184 191
385.52142333984375 -204.95993041992188 50.0 33 34 22
394.6726989746094 -288.3466796875 21.0 100 114 104
417.6209411621094 -252.32476806640625 139.0 79 91 88
467.52484130859375 -248.7489471435547 35.0 91 108 97
582.4301147460938 -95.18748474121094 104.0 41 38 22
582.4301147460938 -95.18748474121094 104.0 41 38 22
582.4301147460938 -95.18748474121094 104.0 41 38 22
582.7134399414062 -27.979694366455078 103.0 50 44 29
587.91064453125 -246.2440643310547 20.0 97 96 99
