ply
format ascii 1.0
element vertex 69
property float x
property float y
property float z
property uchar red
property uchar green
property uchar blue
end_header
293.4042053222656 -185.25193786621094 38.0 145 161 153
333.45367431640625 -81.04077911376953 36.0 171 189 191
334.5916442871094 -167.55104064941406 610.0 159 175 171
338.22686767578125 -235.08570861816406 35.0 135 144 130
338.22686767578125 -235.08570861816406 35.0 135 144 130
340.05712890625 -124.0163803100586 35.0 160 174 171
341.1841125488281 -238.05381774902344 55.0 107 113 98
344.86627197265625 -248.8819580078125 37.0 112 117 105
360.78289794921875 -108.53309631347656 35.0 176 62 45
363.6058654785156 -212.64894104003906 36.0 152 170 171
363.6058654785156 -212.64894104003906 36.0 152 170 171
363.6058654785156 -212.64894104003906 36.0 152 170 171
370.3043212890625 -237.5811004638672 47.0 28 34 21
375.78106689453125 -258.6652526855469 34.0 136 134 125
377.1517028808594 -237.56625366210938 45.0 36 41 31
381.07244873046875 -237.57093811035156 57.0 32 42 31
381.7207336425781 -250.7678680419922 35.0 133 133 124
382.2432556152344 -120.77487182617188 35.0 69 47 41
382.9466247558594 -134.714599609375 35.0 178 76 49
383.0003356933594 -189.7173614501953 35.0 154 172 175
383.2583312988281 -178.9837188720703 35.0 14 29 8
386.6380615234375 -218.1512451171875 42.0 152 170 173
386.82861328125 -231.8606414794922 38.0 21 31 22
387.9178466796875 -115.73138427734375 35.0 171 59 37
388.0942077636719 -128.49514770507812 35.0 147 88 67
390.01812744140625 -240.93873596191406 35.0 112 116 115
390.01812744140625 -240.93873596191406 35.0 112 116 115
390.2705078125 -81.27072143554688 35.0 164 49 32
393.50091552734375 -192.980712890625 36.0 153 173 175
394.9203186035156 -148.27395629882812 33.0 169 80 58
395.9010009765625 -167.87599182128906 33.0 160 68 44
396.9176940917969 -128.63059997558594 35.0 66 47 35
399.86871337890625 -125.70932006835938 35.0 9 19 10
399.86871337890625 -125.70932006835938 35.0 9 19 10
399.98809814453125 -251.20355224609375 35.0 94 100 87
410.15020751953125 -238.1570281982422 35.0 84 86 61
422.34796142578125 -186.96372985839844 141.0 168 147 45
434.30755615234375 -261.8662109375 34.0 128 123 97
437.0094909667969 -258.5314636230469 34.0 130 126 91
439.9888916015625 -237.54759216308594 35.0 39 38 20
443.2958068847656 -189.09457397460938 35.0 168 150 47
446.44879150390625 -191.08047485351562 35.0 168 150 54
446.5823669433594 -199.9669647216797 29.0 168 150 54
446.90216064453125 -136.02317810058594 35.0 27 81 135
447.06939697265625 -220.79931640625 29.0 165 149 53
447.61328125 -78.75481414794922 35.0 10 29 16
451.4735412597656 -74.17534637451172 35.0 17 36 23
451.48681640625 -124.47632598876953 35.0 64 81 77
451.48681640625 -124.47632598876953 35.0 64 81 77
452.0026550292969 -239.47869873046875 35.0 62 68 48
456.4718017578125 -188.5876922607422 35.0 21 29 18
456.4718017578125 -188.5876922607422 35.0 21 29 18
463.8071594238281 -197.7187957763672 23.0 5 32 37
472.72967529296875 -158.73593139648438 35.0 142 164 168
473.0124206542969 -179.16522216796875 25.0 17 27 20
476.6094970703125 -214.15220642089844 35.0 14 81 137
501.0534973144531 -184.30580139160156 34.0 16 38 28
502.5593566894531 -72.64601135253906 35.0 179 200 200
503.1427001953125 -118.203857421875 34.0 98 121 121
504.0016174316406 -129.50247192382812 17.0 56 77 72
504.0016174316406 -129.50247192382812 17.0 56 77 72
504.3337707519531 -123.67792510986328 17.0 18 39 25
504.57305908203125 -174.91127014160156 34.0 13 30 17
504.57305908203125 -174.91127014160156 34.0 13 30 17
507.819580078125 -249.9967041015625 35.0 83 101 104
507.819580078125 -249.9967041015625 35.0 83 101 104
507.95196533203125 -189.6575469970703 34.0 18 65 95
511.5151672363281 -248.96875 34.0 139 153 152
516.23779296875 -228.3150177001953 34.0 131 145 142
