ply
format ascii 1.0
element vertex 46
property float x
property float y
property float z
property uchar red
property uchar green
property uchar blue
end_header
78.44204711914062 -230.82510375976562 21.0 121 144 134
235.31939697265625 -223.48580932617188 88.0 96 115 104
246.53651428222656 -235.15953063964844 88.0 135 144 144
248.84735107421875 -186.20448303222656 293.0 69 65 57
250.34146118164062 -171.69467163085938 89.0 62 63 51
251.5212860107422 -216.9274444580078 89.0 38 58 38
251.72239685058594 -242.3573760986328 89.0 110 121 107
259.025390625 -234.09239196777344 89.0 159 174 175
260.9229736328125 -214.99461364746094 117.0 188 207 219
263.5909118652344 -229.34815979003906 88.0 145 168 167
264.1740417480469 -223.7361297607422 88.0 115 144 149
264.3078918457031 -238.09376525878906 88.0 164 178 175
267.7918701171875 -234.0504608154297 90.0 151 176 177
268.16619873046875 -183.98779296875 87.0 191 95 76
268.21478271484375 -210.4864501953125 80.0 172 205 216
268.2279968261719 -225.29612731933594 87.0 153 171 172
274.0787048339844 -177.07012939453125 88.0 138 84 53
274.08355712890625 -164.6227264404297 207.0 182 73 50
277.5177001953125 -241.73934936523438 89.0 117 129 121
284.67059326171875 -189.80389404296875 89.0 22 112 180
285.84222412109375 -179.02806091308594 118.0 47 88 113
286.6429748535156 -185.54379272460938 89.0 4 91 165
287.36175537109375 -219.7469024658203 88.0 22 39 3
288.6531066894531 -209.27464294433594 88.0 182 172 85
289.7151794433594 -165.85784912109375 88.0 172 205 218
289.73114013671875 -188.6127471923828 88.0 3 104 172
290.142822265625 -181.0790252685547 87.0 48 101 164
290.142822265625 -181.0790252685547 87.0 48 101 164
290.1609191894531 -166.13442993164062 87.0 174 207 223
296.37384033203125 -207.88136291503906 77.0 172 170 102
298.6202087402344 -196.8670196533203 88.0 40 64 98
298.770263671875 -172.0254364013672 88.0 167 202 212
302.9662170410156 -229.89991760253906 92.0 110 126 122
309.58294677734375 -168.75387573242188 90.0 177 201 209
309.8874206542969 -169.06593322753906 90.0 168 192 198
317.9857177734375 -269.2617492675781 79.0 120 133 135
321.6231689453125 -214.57460021972656 92.0 48 101 164
321.6231689453125 -214.57460021972656 92.0 48 101 164
357.568359375 -227.6250762939453 96.0 93 102 100
454.90594482421875 -247.53514099121094 31.0 121 134 124
544.4505004882812 -92.32823944091797 100.0 70 55 38
574.112548828125 -297.5937194824219 136.0 105 117 114
591.6089477539062 -249.87550354003906 96.0 191 224 232
592.8040771484375 -181.14344787597656 164.0 250 255 251
595.4110107421875 -172.55084228515625 102.0 250 255 251
596.010498046875 -232.31126403808594 102.0 201 236 244
