ply
format ascii 1.0
element vertex 253
property float x
property float y
property float z
property uchar red
property uchar green
property uchar blue
end_header
15.849672317504883 -96.3071060180664 14.0 170 188 188
302.4153137207031 -231.8314971923828 37.0 146 160 157
330.37945556640625 -93.0867691040039 35.0 93 93 61
330.9643859863281 -132.2914581298828 35.0 93 87 57
334.2185363769531 -242.03509521484375 35.0 140 145 135
334.568603515625 -252.5848388671875 35.0 94 88 72
340.03997802734375 -247.35008239746094 35.0 79 85 68
342.79620361328125 -70.04048156738281 35.0 113 101 81
345.1313171386719 -24.59111976623535 35.0 95 90 73
351.7658996582031 -49.36165237426758 35.0 97 55 35
356.10308837890625 -183.24398803710938 35.0 103 92 62
362.3857421875 -186.29071044921875 35.0 116 114 90
364.2127380371094 -175.97451782226562 35.0 116 116 93
364.2127380371094 -175.97451782226562 35.0 116 116 93
364.8941955566406 -203.1589813232422 35.0 119 116 82
366.3504638671875 -182.99501037597656 35.0 115 110 86
366.3504638671875 -182.99501037597656 35.0 115 110 86
367.7773132324219 -195.15318298339844 35.0 119 111 83
368.7701110839844 -188.7889862060547 35.0 116 112 81
372.3782653808594 -178.96766662597656 35.0 112 108 82
373.2181701660156 -201.060302734375 35.0 118 114 90
377.8168029785156 -247.1665802001953 27.0 86 84 59
378.48944091796875 -189.65447998046875 35.0 111 107 81
378.48944091796875 -189.65447998046875 35.0 111 107 81
379.3983459472656 -204.0588836669922 35.0 117 108 81
380.0789794921875 -195.3236541748047 35.0 117 117 92
382.96405029296875 -176.3621368408203 35.0 73 73 46
386.92333984375 -194.8441162109375 35.0 55 57 31
388.4802551269531 -13.431790351867676 35.0 116 102 78
389.8912353515625 -197.92578125 34.0 100 98 73
391.118896484375 -82.71189880371094 35.0 117 66 46
391.5193176269531 -220.43397521972656 35.0 108 104 75
391.8848876953125 -193.94007873535156 34.0 62 64 36
394.10906982421875 -194.95054626464844 35.0 72 75 45
394.92974853515625 -199.62255859375 35.0 112 108 80
401.5365905761719 -188.23275756835938 35.0 100 99 79
401.5365905761719 -188.23275756835938 35.0 100 99 79
401.61260986328125 -65.10381317138672 34.0 119 55 36
405.3672790527344 -188.618408203125 34.0 109 107 85
405.8383483886719 -202.10438537597656 34.0 115 106 76
405.9305114746094 -80.23202514648438 35.0 111 52 31
407.9268798828125 -68.596923828125 35.0 119 60 37
408.2745361328125 -76.00762939453125 35.0 117 58 35
408.5466613769531 -118.9092788696289 34.0 111 103 69
411.6597900390625 -111.5977554321289 34.0 116 107 80
411.8318176269531 -54.88725280761719 34.0 73 34 13
414.6907958984375 -229.61070251464844 34.0 100 94 64
414.8323059082031 -72.584228515625 35.0 194 188 176
414.8323059082031 -72.584228515625 35.0 194 188 176
415.7227478027344 -78.98229217529297 35.0 177 173 163
415.8442077636719 -176.241943359375 34.0 100 99 79
416.1277770996094 -183.2323760986328 34.0 56 69 55
416.8281555175781 -95.20051574707031 35.0 153 169 165
418.8740234375 -128.82296752929688 34.0 154 170 166
419.05865478515625 -68.03644561767578 34.0 95 110 102
419.1532897949219 -189.33065795898438 34.0 169 181 174
419.1532897949219 -189.33065795898438 34.0 169 181 174
419.9820861816406 -208.8123779296875 34.0 163 171 160
422.25347900390625 -240.66409301757812 34.0 109 108 78
423.2784118652344 -215.71144104003906 34.0 150 166 165
423.2879333496094 -64.51480102539062 34.0 170 190 199
423.8456115722656 -82.58014678955078 34.0 98 114 113
424.0022888183594 -25.131113052368164 34.0 156 172 175
424.0371398925781 -175.32315063476562 34.0 0 13 0
424.368408203125 -183.426025390625 34.0 159 173 174
424.5931701660156 -179.17234802246094 34.0 173 191 192
426.4682312011719 -67.95976257324219 34.0 0 19 1
426.6446533203125 -211.15260314941406 34.0 147 166 166
426.8337097167969 -71.94559478759766 34.0 111 125 122
426.8337097167969 -71.94559478759766 34.0 111 125 122
428.79901123046875 -216.1697998046875 34.0 161 179 184
428.81060791015625 -189.79293823242188 34.0 164 182 182
429.1362609863281 -205.70513916015625 34.0 70 90 90
429.1710510253906 -220.2240753173828 34.0 113 137 147
431.6710510253906 -175.6039276123047 34.0 103 127 113
432.1910400390625 -258.22869873046875 53.0 113 121 112
434.4393310546875 -205.99949645996094 34.0 89 105 105
434.4393310546875 -205.99949645996094 34.0 89 105 105
434.6971740722656 -178.09054565429688 34.0 160 180 180
435.1584777832031 -67.13890838623047 34.0 0 21 2
437.7121887207031 -113.48236083984375 35.0 150 166 167
437.7121887207031 -113.48236083984375 35.0 150 166 167
437.8366394042969 -62.86125183105469 34.0 57 78 73
439.0074462890625 -77.88101196289062 34.0 106 122 121
439.590576171875 -185.48179626464844 34.0 153 171 174
439.60760498046875 -200.90057373046875 34.0 139 160 155
439.6234436035156 -71.88692474365234 36.0 124 139 129
439.94769287109375 -209.3041534423828 34.0 116 135 130
440.2982177734375 -231.49388122558594 34.0 83 83 58
440.6103820800781 -214.55767822265625 34.0 117 137 139
441.9241943359375 -117.25202178955078 34.0 165 188 179
441.9241943359375 -117.25202178955078 34.0 165 188 179
442.25787353515625 -67.0539321899414 34.0 0 8 0
442.70635986328125 -73.95955657958984 34.0 136 163 161
442.9969787597656 -71.07379913330078 34.0 142 155 155
445.12493896484375 -77.60884857177734 34.0 187 198 202
445.38995361328125 -127.11515045166016 34.0 70 91 82
446.0431213378906 -189.2222442626953 34.0 148 168 173
446.1712646484375 -179.89999389648438 34.0 165 186 190
448.3067321777344 -81.20323181152344 34.0 77 102 85
448.9679260253906 -175.16619873046875 34.0 116 136 118
450.059326171875 -220.10951232910156 34.0 135 155 158
450.1541442871094 -116.41364288330078 34.0 160 178 179
450.1541442871094 -116.41364288330078 34.0 160 178 179
450.4578552246094 -214.7278594970703 34.0 131 151 151
450.705078125 -23.516489028930664 34.0 152 170 171
451.10333251953125 -171.2925567626953 34.0 71 85 77
451.1181335449219 -126.78441619873047 34.0 114 140 134
451.2825927734375 -77.6144790649414 34.0 184 197 199
452.4968566894531 -178.27886962890625 34.0 175 189 190
452.50762939453125 -196.2712860107422 34.0 141 161 161
452.72314453125 -210.5498504638672 34.0 162 183 178
453.58355712890625 -141.15286254882812 34.0 146 164 167
454.30908203125 -66.30521392822266 34.0 45 71 65
454.437255859375 -122.33878326416016 34.0 143 160 166
455.04827880859375 -217.1328582763672 34.0 143 163 170
455.72979736328125 -62.83351135253906 34.0 183 199 198
456.533447265625 -23.021692276000977 34.0 148 173 174
456.533447265625 -23.021692276000977 36.0 148 173 174
456.9251403808594 -214.6209716796875 34.0 139 157 162
457.30657958984375 -235.80618286132812 34.0 110 101 76
457.7768249511719 -117.01093292236328 34.0 160 183 180
458.1565856933594 -174.4069061279297 34.0 88 105 90
459.1832275390625 -20.667661666870117 36.0 152 170 175
459.4914245605469 -171.77182006835938 34.0 100 113 105
459.83795166015625 -178.76121520996094 34.0 139 157 158
460.7142028808594 -139.63168334960938 34.0 103 120 103
461.2714538574219 -110.90057373046875 34.0 54 75 70
461.58709716796875 -174.6208038330078 34.0 10 27 14
461.58709716796875 -174.6208038330078 34.0 10 27 14
461.61737060546875 -62.372093200683594 34.0 39 60 46
462.0055236816406 -169.37228393554688 34.0 0 15 2
462.0055236816406 -169.37228393554688 34.0 0 15 2
462.3584289550781 -22.565635681152344 35.0 147 167 171
462.70306396484375 -146.79981994628906 34.0 115 134 123
462.70306396484375 -146.79981994628906 34.0 115 134 123
463.68023681640625 -209.59341430664062 34.0 97 121 115
464.4478454589844 -80.60829162597656 34.0 90 107 96
466.18389892578125 -65.49057006835938 34.0 145 163 168
466.7411193847656 -139.3218994140625 34.0 20 41 30
468.3427429199219 -121.47219848632812 34.0 95 114 101
470.31207275390625 -65.47480010986328 34.0 149 166 174
472.3170166015625 -50.31401062011719 34.0 57 80 68
473.4837341308594 -69.31615447998047 34.0 0 17 6
474.7803955078125 -61.81196975708008 34.0 127 139 138
475.45281982421875 -174.3347930908203 34.0 66 80 73
475.4541015625 -65.31158447265625 34.0 147 162 168
475.697265625 -171.1172637939453 34.0 125 137 134
475.7991943359375 -120.14448547363281 34.0 160 179 170
477.1302795410156 -75.5580062866211 34.0 0 13 0
477.31982421875 -59.373931884765625 34.0 129 139 132
478.1685791015625 -19.651081085205078 34.0 51 74 71
478.1685791015625 -19.651081085205078 34.0 51 74 71
479.7889709472656 -68.88882446289062 34.0 0 13 0
480.55426025390625 -61.10273361206055 34.0 51 61 54
480.7717590332031 -173.9796600341797 34.0 97 108 110
481.2658996582031 -21.882062911987305 34.0 106 124 122
481.8848876953125 -121.2898178100586 34.0 86 106 87
482.2558288574219 -28.084272384643555 34.0 0 7 4
482.5654602050781 -142.2087860107422 34.0 46 62 40
483.94989013671875 -58.10200119018555 34.0 0 14 1
488.5184631347656 -21.59278678894043 34.0 56 69 75
489.5227966308594 -140.78587341308594 34.0 150 166 165
490.7729797363281 -58.09046936035156 34.0 0 5 1
490.87109375 -78.8764419555664 34.0 167 194 195
491.8050537109375 -234.52223205566406 34.0 105 101 75
497.1888122558594 -17.945995330810547 34.0 164 191 191
499.6860046386719 -138.2292022705078 34.0 0 10 0
499.6860046386719 -138.2292022705078 34.0 0 10 0
499.7972717285156 -60.47352981567383 52.0 19 43 37
504.0267028808594 -40.47566604614258 34.0 0 14 2
504.728759765625 -229.6195526123047 34.0 97 95 68
506.4917297363281 -20.499265670776367 34.0 131 151 147
509.1560974121094 -17.340288162231445 34.0 150 176 182
510.8239440917969 -259.1646728515625 17.0 110 117 111
512.954345703125 -58.6995964050293 44.0 36 61 58
518.1249389648438 -118.5306625366211 311.0 146 169 173
519.6952514648438 -20.507625579833984 34.0 158 184 178
519.7186279296875 -139.25860595703125 34.0 144 165 163
523.1209716796875 -16.628074645996094 34.0 150 166 169
524.6170043945312 -259.0574035644531 16.0 115 116 107
525.434814453125 -12.983869552612305 34.0 147 167 169
528.5960083007812 -16.579809188842773 34.0 147 167 169
529.003662109375 -12.379924774169922 34.0 147 163 166
530.7510375976562 -138.90301513671875 34.0 166 182 174
531.9996948242188 -10.71245288848877 34.0 147 167 169
532.030517578125 -258.7878723144531 27.0 113 114 105
532.8856811523438 -103.90567779541016 16.0 135 159 168
535.6170654296875 -255.13389587402344 31.0 112 113 103
540.3903198242188 -166.2760467529297 89.0 130 149 136
540.4236450195312 -132.9949493408203 34.0 146 161 171
540.5753784179688 -66.4254150390625 34.0 161 185 179
540.7220458984375 -83.47220611572266 30.0 149 167 169
543.8516845703125 -69.02833557128906 29.0 5 20 8
546.496826171875 -222.24691772460938 34.0 147 163 166
550.021240234375 -167.4640655517578 60.0 19 39 19
554.5118408203125 -16.540220260620117 34.0 143 168 171
555.7711181640625 -213.32705688476562 62.0 139 159 159
559.6576538085938 -210.72789001464844 34.0 140 161 158
568.4524536132812 -71.58490753173828 34.0 16 31 18
572.5772705078125 -116.94731140136719 34.0 143 164 166
573.7155151367188 -71.56965637207031 34.0 12 27 17
573.9874877929688 -56.96322250366211 34.0 83 108 105
594.7766723632812 -212.4718017578125 33.0 150 166 171
595.7263793945312 -173.16758728027344 34.0 141 161 161
598.2742919921875 -166.48683166503906 34.0 137 160 157
598.5405883789062 -179.34400939941406 36.0 152 166 163
605.3367309570312 -19.077852249145508 30.0 118 138 140
606.8006591796875 -87.78128051757812 35.0 145 168 169
607.1953735351562 -58.09375 26.0 44 72 65
609.6433715820312 -110.19800567626953 34.0 32 48 44
609.6441040039062 -97.71697235107422 35.0 86 108 98
609.6966552734375 -127.65272521972656 34.0 0 18 5
610.4674072265625 -114.2448959350586 34.0 107 122 109
612.1325073242188 -117.85488891601562 34.0 40 55 47
612.24560546875 -92.77704620361328 34.0 154 174 172
612.24560546875 -92.77704620361328 34.0 154 174 172
612.6438598632812 -137.19967651367188 34.0 65 84 71
612.8013916015625 -121.8521499633789 34.0 23 40 36
613.03173828125 -93.91106414794922 35.0 150 176 170
614.4536743164062 -112.49269104003906 34.0 2 21 10
615.058837890625 -134.36312866210938 34.0 16 34 19
615.058837890625 -134.36312866210938 34.0 16 34 19
615.261474609375 -103.5728530883789 34.0 165 186 182
615.350341796875 -123.96851348876953 34.0 149 165 164
615.6449584960938 -120.00643920898438 34.0 147 168 165
616.2399291992188 -133.47048950195312 34.0 22 40 22
616.2399291992188 -133.47048950195312 45.0 22 40 22
616.2399291992188 -133.47048950195312 34.0 22 40 22
616.2399291992188 -133.47048950195312 34.0 22 40 22
616.8468017578125 -109.31205749511719 34.0 136 159 149
617.9985961914062 -87.87724304199219 34.0 149 170 170
619.8018188476562 -124.07548522949219 34.0 36 53 45
620.6482543945312 -209.51971435546875 34.0 68 75 73
622.240234375 -102.12574768066406 35.0 155 163 154
622.9828491210938 -138.7572479248047 31.0 149 166 162
623.9675903320312 -106.28437805175781 35.0 53 67 64
624.348876953125 -90.63970184326172 35.0 150 170 175
625.2507934570312 -152.9335174560547 18.0 148 172 178
625.9091796875 -132.1968231201172 34.0 50 67 63
627.5882568359375 -216.95480346679688 33.0 147 167 169
628.3805541992188 -128.75852966308594 34.0 145 168 163
628.3805541992188 -128.75852966308594 34.0 145 168 163
629.2405395507812 -134.90805053710938 34.0 65 86 86
629.2405395507812 -134.90805053710938 34.0 65 86 86
629.995361328125 -108.06715393066406 35.0 114 135 133
630.1543579101562 -112.83514404296875 35.0 0 8 2
631.5324096679688 -221.992919921875 34.0 147 165 170
632.0390014648438 -132.15908813476562 34.0 116 143 142
632.1580810546875 -138.00201416015625 34.0 0 22 8
632.4827270507812 -122.84551239013672 35.0 0 19 12
632.5440063476562 -187.01187133789062 35.0 3 32 12
633.6756591796875 -102.57235717773438 35.0 169 192 194
