ply
format ascii 1.0
element vertex 389
property float x
property float y
property float z
property uchar red
property uchar green
property uchar blue
end_header
244.24868774414062 -228.27560424804688 55.0 133 138 130
265.0832824707031 -155.3166046142578 55.0 164 181 177
273.05621337890625 -167.52529907226562 52.0 115 116 103
315.911865234375 -98.71914672851562 42.0 164 178 177
317.5406494140625 -13.401999473571777 42.0 175 193 196
329.50799560546875 -226.80799865722656 42.0 87 89 66
329.59918212890625 -13.007061958312988 42.0 91 97 77
331.2137756347656 -114.81635284423828 42.0 93 90 71
331.3022155761719 -229.62481689453125 42.0 87 87 62
332.150146484375 -224.0362091064453 42.0 84 84 64
332.150146484375 -224.0362091064453 42.0 84 84 64
333.47808837890625 -13.455093383789062 42.0 105 107 79
334.65338134765625 -59.40686798095703 42.0 113 107 78
337.0025634765625 -9.164270401000977 42.0 116 114 92
341.6322937011719 -235.16783142089844 42.0 95 86 65
345.47589111328125 -90.73310089111328 42.0 22 8 0
348.46795654296875 -93.68545532226562 42.0 108 69 46
348.46795654296875 -93.68545532226562 42.0 108 69 46
350.8589172363281 -238.52098083496094 44.0 110 101 76
355.074951171875 -177.96603393554688 42.0 117 110 82
356.6559753417969 -183.3690643310547 42.0 118 114 88
358.2481384277344 -188.05043029785156 42.0 127 111 92
360.6634826660156 -103.50838470458984 42.0 125 92 70
360.6634826660156 -103.50838470458984 42.0 125 92 70
362.1845397949219 -42.71848678588867 42.0 132 70 50
365.260009765625 -183.06272888183594 42.0 111 107 81
365.4603576660156 -213.5730438232422 42.0 119 112 91
365.89263916015625 -188.67996215820312 42.0 111 104 78
367.9398498535156 -193.5265350341797 42.0 117 113 84
367.9398498535156 -193.5265350341797 42.0 117 113 84
369.3018493652344 -178.48348999023438 42.0 77 77 52
371.3572082519531 -187.1339569091797 42.0 88 88 63
373.6900329589844 -49.46903610229492 42.0 118 63 40
375.60418701171875 -195.08396911621094 42.0 115 109 79
375.60418701171875 -195.08396911621094 42.0 115 109 79
377.4505310058594 -24.282424926757812 42.0 127 86 64
377.60992431640625 -45.71323776245117 42.0 125 113 93
377.60992431640625 -45.71323776245117 42.0 125 113 93
377.6592712402344 -192.24893188476562 42.0 72 67 43
380.0237121582031 -21.454750061035156 42.0 110 64 41
380.28662109375 -40.92991256713867 42.0 136 111 85
380.49560546875 -40.77647018432617 42.0 136 111 85
385.3836364746094 -139.5980987548828 70.0 104 100 74
386.4703674316406 -198.15182495117188 42.0 115 104 79
386.54638671875 -187.85552978515625 42.0 62 55 31
386.99029541015625 -102.57695007324219 42.0 120 52 24
387.9740295410156 -28.058921813964844 42.0 111 65 40
388.5357666015625 -21.9160213470459 42.0 112 61 44
388.5357666015625 -21.9160213470459 42.0 112 61 44
388.9024658203125 -132.75149536132812 42.0 113 107 72
388.96807861328125 -93.43074798583984 42.0 117 53 31
389.03369140625 -37.99348831176758 42.0 135 108 84
389.8771667480469 -198.29757690429688 40.0 110 98 71
391.66156005859375 -126.93183135986328 42.0 109 100 79
392.7650146484375 -40.77067565917969 42.0 80 50 25
393.46917724609375 -247.77015686035156 42.0 104 106 80
393.7350769042969 -27.03753089904785 41.0 142 119 95
393.9708251953125 -219.64390563964844 42.0 106 97 69
393.9708251953125 -219.64390563964844 42.0 106 97 69
394.4148254394531 -178.57748413085938 42.0 57 60 32
394.523681640625 -96.84485626220703 42.0 99 55 33
394.523681640625 -96.84485626220703 42.0 99 55 33
394.6845397949219 -186.38314819335938 42.0 73 76 48
394.8739318847656 -45.93805694580078 41.0 145 151 138
395.12554931640625 -183.30653381347656 42.0 82 79 59
395.12554931640625 -183.30653381347656 42.0 82 79 59
396.4310607910156 -115.31661987304688 42.0 97 103 85
396.6053161621094 -93.19722747802734 42.0 149 128 115
396.7840881347656 -37.872886657714844 42.0 162 175 172
396.87176513671875 -128.29306030273438 42.0 92 98 79
396.87176513671875 -128.29306030273438 42.0 92 98 79
397.29815673828125 -188.60035705566406 42.0 42 53 26
397.6037292480469 -96.85731506347656 42.0 186 164 149
398.5903625488281 -137.13136291503906 42.0 153 163 154
399.0144348144531 -47.44776153564453 165.0 124 142 143
399.1380615234375 -144.0992889404297 42.0 171 181 168
399.77862548828125 -21.15550994873047 42.0 156 169 173
399.8277587890625 -89.83464050292969 42.0 71 78 77
400.00799560546875 -216.3975067138672 42.0 100 101 90
400.71270751953125 -132.51739501953125 42.0 159 173 172
400.7851867675781 -40.870765686035156 42.0 156 173 181
400.9935607910156 -24.933380126953125 42.0 124 142 145
400.9935607910156 -24.933380126953125 42.0 124 142 145
401.006103515625 -208.73114013671875 42.0 167 179 169
401.1540222167969 -140.647216796875 41.0 158 172 173
401.2187805175781 -104.48641204833984 42.0 154 169 175
401.4638671875 -59.112831115722656 42.0 158 176 179
402.25738525390625 -180.16183471679688 42.0 152 170 173
402.2974853515625 -212.0366973876953 42.0 150 171 171
402.6246643066406 -161.42335510253906 42.0 149 162 166
403.2249755859375 -93.00309753417969 42.0 95 110 102
403.2249755859375 -93.00309753417969 42.0 95 110 102
403.38165283203125 -205.36367797851562 42.0 155 171 172
403.7129211425781 -29.434724807739258 41.0 133 156 158
404.4718017578125 -38.14407730102539 41.0 149 165 164
404.54412841796875 -101.79571533203125 42.0 105 121 118
404.75128173828125 -209.30844116210938 42.0 147 170 174
404.8854675292969 -20.859722137451172 42.0 156 173 181
405.1537780761719 -140.54766845703125 42.0 107 128 126
405.46795654296875 -200.930908203125 42.0 150 166 171
407.1161193847656 -177.47531127929688 42.0 83 103 103
407.5910339355469 -227.92713928222656 42.0 93 84 54
407.77032470703125 -196.70213317871094 41.0 118 138 140
408.03179931640625 -37.46778106689453 41.0 108 129 125
408.03179931640625 -37.46778106689453 41.0 108 129 125
409.4361877441406 -95.88724517822266 42.0 30 51 47
409.4737548828125 -42.406494140625 42.0 118 138 140
409.51641845703125 -179.6009979248047 42.0 147 163 164
409.70062255859375 -201.00831604003906 41.0 141 161 166
409.810546875 -92.42391204833984 42.0 113 126 130
412.05780029296875 -20.05927085876465 41.0 156 176 181
412.0888366699219 -89.13262176513672 41.0 29 51 41
412.2718811035156 -84.27481842041016 41.0 62 78 77
412.3809509277344 -233.87362670898438 50.0 86 91 81
413.33837890625 -203.72744750976562 42.0 121 143 145
413.33837890625 -203.72744750976562 42.0 121 143 145
413.47174072265625 -212.3675537109375 42.0 145 166 186
413.7166748046875 -207.95069885253906 42.0 102 128 140
413.9272155761719 -140.0525360107422 42.0 107 130 125
413.9686279296875 -220.833984375 42.0 94 94 67
414.0789489746094 -131.94857788085938 42.0 108 134 130
414.3971252441406 -128.65377807617188 42.0 157 173 178
414.48193359375 -59.692073822021484 41.0 121 144 134
415.2138977050781 -180.44740295410156 42.0 101 124 121
415.5443420410156 -92.05435180664062 41.0 113 125 124
415.5580749511719 -136.19252014160156 42.0 154 172 175
415.7030944824219 -23.065549850463867 41.0 107 132 131
415.8362731933594 -103.83631134033203 41.0 155 171 174
415.9024963378906 -97.80648040771484 41.0 150 166 167
417.4346618652344 -127.17256927490234 41.0 153 168 174
418.3772277832031 -139.67074584960938 42.0 107 128 126
418.9456481933594 -208.66357421875 42.0 137 159 168
419.0595397949219 -204.75477600097656 42.0 130 153 148
419.62921142578125 -44.51675033569336 41.0 103 121 126
419.9056701660156 -103.67813110351562 41.0 155 166 170
420.08575439453125 -185.18008422851562 41.0 149 166 174
420.4948425292969 -88.29389190673828 41.0 110 131 121
420.5602722167969 -181.93421936035156 42.0 84 104 104
420.9024353027344 -172.8473663330078 41.0 71 84 88
421.11224365234375 -211.926513671875 42.0 153 171 180
422.59503173828125 -100.49307250976562 41.0 105 121 118
422.8608703613281 -193.6245880126953 42.0 139 159 163
422.9643249511719 -204.57305908203125 42.0 96 119 114
423.0320129394531 -179.45596313476562 42.0 117 140 137
423.40521240234375 -86.36534881591797 41.0 89 107 108
423.90740966796875 -233.41339111328125 45.0 90 96 78
424.1361999511719 -150.8424530029297 42.0 143 168 169
424.50537109375 -55.027889251708984 41.0 161 183 192
424.824951171875 -94.85196685791016 41.0 22 49 33
424.9082336425781 -19.190610885620117 41.0 173 182 189
425.29150390625 -142.65159606933594 41.0 146 166 168
425.6554260253906 -181.9030303955078 41.0 100 118 116
426.88165283203125 -102.86288452148438 41.0 144 157 161
427.22369384765625 -207.7941131591797 42.0 131 150 157
427.22369384765625 -207.7941131591797 42.0 131 150 157
427.2342529296875 -176.9360809326172 41.0 43 64 59
427.6304626464844 -131.56451416015625 41.0 103 117 114
427.9362487792969 -62.229434967041016 41.0 147 167 167
427.9503479003906 -173.92942810058594 42.0 124 138 139
428.6225891113281 -97.15087127685547 41.0 150 166 167
428.9678955078125 -91.4983139038086 41.0 51 79 72
428.9678955078125 -91.4983139038086 41.0 51 79 72
429.62078857421875 -179.56431579589844 41.0 157 179 179
429.9576721191406 -126.60137176513672 41.0 153 173 179
430.7419738769531 -156.08590698242188 42.0 161 181 183
430.7419738769531 -156.08590698242188 42.0 161 181 183
431.20904541015625 -99.64471435546875 41.0 155 175 175
431.87213134765625 -203.9174346923828 41.0 132 151 147
431.87213134765625 -203.9174346923828 41.0 132 151 147
432.9125671386719 -173.89414978027344 41.0 91 115 105
433.17340087890625 -184.54034423828125 42.0 145 163 170
433.3116760253906 -54.57644271850586 41.0 156 176 183
435.5287170410156 -135.17623901367188 41.0 156 174 176
435.5435485839844 -88.49288940429688 41.0 96 120 108
436.0804748535156 -146.66136169433594 42.0 110 126 126
436.6268615722656 -178.91587829589844 42.0 158 172 173
437.9938659667969 -90.89651489257812 41.0 32 47 39
439.604248046875 -53.55438232421875 41.0 151 172 176
439.7853698730469 -93.88103485107422 41.0 128 146 144
439.8179931640625 -33.626182556152344 41.0 157 174 180
439.9642333984375 -87.69216918945312 42.0 97 121 115
441.0791320800781 -90.89311981201172 41.0 47 61 58
441.212646484375 -80.79695129394531 41.0 111 125 122
441.5437316894531 -164.53919982910156 41.0 69 90 79
441.8426208496094 -173.29208374023438 41.0 92 110 106
443.9395751953125 -102.05819702148438 41.0 151 172 174
444.7281494140625 -93.47888946533203 41.0 90 111 106
445.50494384765625 -87.22367858886719 41.0 128 146 146
445.6534423828125 -176.367431640625 41.0 61 81 79
446.3448791503906 -90.60584259033203 41.0 13 30 19
446.36956787109375 -150.49368286132812 41.0 95 114 109
447.0931701660156 -233.8223114013672 38.0 77 78 68
447.61102294921875 -180.63320922851562 41.0 77 105 99
448.0198059082031 -84.65753173828125 41.0 34 50 47
448.0198059082031 -84.65753173828125 41.0 34 50 47
448.1032409667969 -60.10639190673828 41.0 43 61 57
448.35015869140625 -77.83220672607422 41.0 29 41 38
448.5339050292969 -186.77796936035156 41.0 146 166 168
448.87628173828125 -78.9620590209961 41.0 32 46 45
448.9547424316406 -148.68971252441406 160.0 118 132 129
450.10406494140625 -12.19571590423584 59.0 106 49 28
450.8553466796875 -87.25363159179688 41.0 111 130 128
450.9034423828125 -47.6053352355957 41.0 161 184 188
451.1946716308594 -98.1417236328125 41.0 125 145 143
452.2879638671875 -186.61114501953125 41.0 145 163 166
452.34423828125 -51.93742370605469 41.0 100 116 115
452.7582092285156 -142.88186645507812 41.0 143 166 163
453.2508239746094 -136.94833374023438 41.0 151 172 174
454.07611083984375 -134.06631469726562 42.0 157 175 177
454.07611083984375 -134.06631469726562 42.0 157 175 177
454.67498779296875 -153.8004150390625 41.0 64 87 82
456.2042236328125 -46.422977447509766 41.0 158 176 181
456.7153625488281 -85.9357681274414 41.0 127 146 137
458.14453125 -172.8486328125 41.0 15 30 15
459.5133972167969 -52.56858825683594 41.0 148 164 163
459.99957275390625 -148.66612243652344 41.0 96 112 112
459.99957275390625 -148.66612243652344 41.0 96 112 112
460.7846374511719 -130.30764770507812 42.0 75 99 89
463.3876953125 -58.653656005859375 41.0 108 126 126
463.6461486816406 -52.54407501220703 41.0 112 133 130
464.571533203125 -81.62399291992188 49.0 114 132 132
464.8287353515625 -86.3214111328125 41.0 124 142 145
465.00360107421875 -15.830999374389648 41.0 87 39 20
465.06707763671875 -11.74410629272461 42.0 119 73 52
465.4938049316406 -180.3208770751953 237.0 147 167 174
466.37506103515625 -45.46321487426758 41.0 156 176 179
466.8899841308594 -32.100765228271484 41.0 151 172 176
467.7587890625 -8.966779708862305 54.0 191 188 173
468.8208312988281 -43.61165237426758 41.0 155 175 177
469.2829895019531 -170.89089965820312 41.0 3 20 7
473.4841003417969 -15.901676177978516 41.0 96 48 30
474.33087158203125 -52.63029098510742 41.0 112 132 134
475.918701171875 -85.45267486572266 41.0 120 140 143
476.4571533203125 -32.311214447021484 41.0 148 173 176
476.4571533203125 -32.311214447021484 41.0 148 173 176
480.1605529785156 -51.08088302612305 41.0 125 146 141
480.45367431640625 -171.25149536132812 41.0 14 27 15
481.4195861816406 -14.846009254455566 41.0 103 51 31
481.4195861816406 -14.846009254455566 41.0 103 51 31
481.8760681152344 -47.50160598754883 41.0 158 176 179
482.32989501953125 -30.710861206054688 32.0 153 173 177
482.6159973144531 -84.62968444824219 41.0 132 146 145
483.9617919921875 -148.15826416015625 41.0 121 146 147
484.07708740234375 -154.62957763671875 32.0 53 73 71
484.48211669921875 -167.7040252685547 41.0 112 135 135
484.6574401855469 -54.027015686035156 41.0 108 126 126
486.1843566894531 -169.08242797851562 63.0 4 25 11
487.5601501464844 -234.317626953125 41.0 93 99 82
488.62939453125 -170.9524383544922 41.0 12 29 16
489.60626220703125 -15.06882381439209 41.0 86 38 17
490.19598388671875 -54.037818908691406 41.0 114 137 134
491.0406494140625 -31.048263549804688 41.0 151 172 176
493.0888977050781 -7.61196756362915 43.0 175 189 193
494.5391540527344 -146.16380310058594 70.0 79 105 99
494.8045349121094 -83.94678497314453 41.0 166 181 184
495.045166015625 -150.78628540039062 41.0 90 111 106
495.53155517578125 -212.8505096435547 41.0 154 172 182
495.84674072265625 -31.50627899169922 41.0 159 174 180
496.0404357910156 -168.51535034179688 102.0 33 52 43
496.1029968261719 -173.62794494628906 103.0 4 22 0
500.0956726074219 -51.233970642089844 41.0 100 121 116
501.0660705566406 -31.052692413330078 41.0 155 175 182
501.6131896972656 -82.8864517211914 41.0 102 120 121
502.6475524902344 -206.4070587158203 41.0 142 162 173
504.3408203125 -84.13639831542969 41.0 0 9 7
505.3907470703125 -41.5826530456543 41.0 155 175 180
506.11370849609375 -178.37353515625 42.0 150 166 171
506.28155517578125 -74.64685821533203 26.0 135 149 139
506.584228515625 -172.89715576171875 87.0 8 21 9
507.3925476074219 -200.35552978515625 41.0 105 128 126
507.3925476074219 -200.35552978515625 41.0 105 128 126
507.9535217285156 -49.846736907958984 41.0 118 143 144
507.9535217285156 -49.846736907958984 41.0 118 143 144
507.97406005859375 -207.63375854492188 41.0 149 166 174
510.2237243652344 -45.23070526123047 41.0 157 177 182
510.3967590332031 -58.76231002807617 41.0 68 97 79
511.53289794921875 -207.5085906982422 41.0 150 167 173
513.2947998046875 -126.84327697753906 41.0 114 137 134
514.3103637695312 -94.11846160888672 41.0 0 15 0
516.5339965820312 -97.06681823730469 41.0 173 191 194
517.1360473632812 -128.7847137451172 43.0 107 128 123
519.3201293945312 -94.30880737304688 41.0 0 14 0
522.1806640625 -91.47914123535156 71.0 12 27 15
523.3008422851562 -129.1367645263672 41.0 153 176 175
525.0965576171875 -31.78542709350586 41.0 155 175 180
525.0965576171875 -31.78542709350586 41.0 155 175 180
526.5288696289062 -82.79061889648438 41.0 114 135 133
532.3065185546875 -85.08406066894531 30.0 143 161 159
532.8551025390625 -204.75364685058594 41.0 149 169 172
533.8651733398438 -51.14442825317383 41.0 153 175 182
534.7667236328125 -174.39019775390625 41.0 155 176 171
534.7667236328125 -174.39019775390625 41.0 155 176 171
535.51611328125 -169.138916015625 68.0 143 169 163
539.41552734375 -51.034793853759766 41.0 153 176 180
539.41552734375 -51.034793853759766 41.0 153 176 180
540.8698120117188 -174.48638916015625 41.0 143 161 163
545.1851196289062 -184.06735229492188 41.0 14 28 16
545.2598266601562 -80.48674774169922 41.0 151 175 156
546.4459228515625 -120.3464584350586 41.0 120 134 130
546.4459228515625 -120.3464584350586 41.0 120 134 130
546.949951171875 -124.63921356201172 41.0 72 86 83
547.4212646484375 -127.68901824951172 41.0 83 104 99
548.2166748046875 -114.24627685546875 41.0 118 128 121
548.822265625 -52.940185546875 41.0 155 175 175
548.921142578125 -144.97885131835938 41.0 99 115 112
549.9524536132812 -110.3134765625 41.0 64 88 73
549.9524536132812 -110.3134765625 41.0 64 88 73
551.532958984375 -21.000730514526367 42.0 135 144 144
551.6423950195312 -143.6686248779297 41.0 50 69 60
551.9285888671875 -193.3576202392578 41.0 14 29 14
553.11328125 -108.02629089355469 40.0 92 108 105
553.4900512695312 -158.8417205810547 41.0 86 113 113
553.5877685546875 -123.3701400756836 41.0 15 30 17
553.9142456054688 -14.822279930114746 42.0 95 69 50
554.46044921875 -127.61398315429688 41.0 71 85 82
554.7381591796875 -105.62528991699219 41.0 158 175 185
556.5279541015625 -137.65237426757812 41.0 163 184 181
557.3304443359375 -146.74520874023438 41.0 87 108 108
557.3766479492188 -176.44931030273438 39.0 148 169 166
558.366455078125 -117.44815063476562 41.0 127 153 142
558.6365966796875 -135.68063354492188 41.0 99 116 108
558.9466552734375 -28.837726593017578 41.0 98 121 123
559.6676635742188 -120.5486068725586 41.0 122 140 140
560.0264282226562 -141.01504516601562 41.0 77 94 81
560.6502685546875 -174.54080200195312 39.0 131 154 153
561.0542602539062 -108.14134216308594 41.0 124 142 141
562.3677368164062 -138.18414306640625 41.0 52 66 63
563.2711791992188 -143.76620483398438 41.0 35 51 48
563.3765258789062 -28.384292602539062 42.0 141 161 163
564.02978515625 -23.394195556640625 42.0 149 165 168
564.6210327148438 -121.97283172607422 41.0 140 156 157
565.6514892578125 -110.0958480834961 41.0 92 108 105
565.6707763671875 -130.66192626953125 41.0 67 83 79
565.6707763671875 -130.66192626953125 41.0 67 83 79
565.6883544921875 -140.79100036621094 41.0 48 70 56
565.861083984375 -128.19598388671875 41.0 109 122 126
566.614501953125 -18.533716201782227 42.0 89 52 31
566.7725830078125 -44.960487365722656 41.0 154 174 178
567.7437744140625 -120.30724334716797 41.0 107 125 125
568.1882934570312 -202.4476776123047 41.0 41 62 53
568.712646484375 -115.04393768310547 41.0 0 19 18
568.982177734375 -206.02987670898438 41.0 153 176 177
569.1085205078125 -28.492122650146484 48.0 140 158 161
569.853271484375 -50.615013122558594 41.0 151 173 179
569.9365234375 -136.25848388671875 41.0 61 75 72
570.5150146484375 -108.17279815673828 41.0 41 67 54
571.1995239257812 -127.93262481689453 41.0 94 111 107
571.4290771484375 -112.67233276367188 41.0 115 138 128
571.4290771484375 -112.67233276367188 41.0 115 138 128
571.4558715820312 -204.75892639160156 41.0 146 171 167
572.003662109375 -125.07939910888672 41.0 18 37 33
572.6406860351562 -50.81654357910156 41.0 151 176 180
572.7275390625 -171.561767578125 41.0 154 173 173
573.6978149414062 -213.94712829589844 41.0 115 121 104
574.0999755859375 -119.79240417480469 41.0 149 174 177
574.46484375 -206.0807342529297 41.0 148 173 174
575.0719604492188 -109.00967407226562 41.0 153 176 175
575.1777954101562 -188.32852172851562 41.0 153 173 179
575.1777954101562 -188.32852172851562 41.0 153 173 179
575.2557373046875 -141.9969940185547 41.0 156 174 176
576.3440551757812 -55.497615814208984 20.0 160 173 180
578.516357421875 -157.8159637451172 41.0 147 167 169
578.56298828125 -114.39649200439453 41.0 154 174 178
578.9136352539062 -142.93124389648438 41.0 152 170 175
580.8331298828125 -37.320552825927734 43.0 190 177 169
581.5645141601562 -150.1096954345703 41.0 153 173 177
581.6771240234375 -203.5457305908203 41.0 150 170 177
582.4727172851562 -133.11663818359375 41.0 152 175 174
584.3770141601562 -129.9683074951172 41.0 173 183 180
584.4661865234375 -120.97956085205078 41.0 178 190 187
585.5296020507812 -184.6673126220703 41.0 150 170 175
585.5296020507812 -184.6673126220703 41.0 150 170 175
585.5595703125 -131.64328002929688 41.0 175 191 187
586.9155883789062 -213.45281982421875 41.0 99 101 76
587.4104614257812 -143.89451599121094 41.0 85 93 82
587.6469116210938 -127.60102844238281 41.0 85 86 72
588.6129150390625 -189.3679962158203 37.0 119 125 110
589.3468017578125 -117.40766143798828 41.0 125 112 88
589.9108276367188 -85.6464614868164 41.0 114 54 31
589.9108276367188 -85.6464614868164 41.0 114 54 31
590.1142578125 -124.55683898925781 41.0 111 106 85
591.807373046875 -164.09136962890625 41.0 104 100 76
594.2317504882812 -98.71591186523438 41.0 114 48 25
598.0584106445312 -209.69757080078125 41.0 108 101 78
599.6019897460938 -248.90908813476562 41.0 100 97 80
604.9247436523438 -107.29474639892578 42.0 125 59 35
605.9197998046875 -215.61724853515625 41.0 118 111 83
610.5997314453125 -212.96461486816406 41.0 107 98 68
611.1082153320312 -212.92904663085938 41.0 107 98 68
