ply
format ascii 1.0
element vertex 44
property float x
property float y
property float z
property uchar red
property uchar green
property uchar blue
end_header
333.5574035644531 -146.55044555664062 5805.0 158 176 174
339.7872009277344 -54.401817321777344 31.0 175 194 194
339.7872009277344 -54.401817321777344 2174.0 175 194 194
343.4477844238281 -111.29534149169922 31.0 145 159 158
344.4234619140625 -181.6558837890625 10100.0 98 107 105
345.1078796386719 -232.96279907226562 7165.0 118 119 105
346.407958984375 -242.4701385498047 32.0 118 119 107
347.1900939941406 -242.59735107421875 31.0 104 105 93
360.97662353515625 -263.3191223144531 46.0 129 130 117
370.22540283203125 -86.97539520263672 31.0 170 58 34
370.22540283203125 -86.97539520263672 31.0 170 58 34
395.8948669433594 -118.2325668334961 30.0 178 79 45
395.8948669433594 -118.2325668334961 30.0 178 79 45
399.48223876953125 -146.94110107421875 30.0 183 80 52
403.53802490234375 -108.91864776611328 30.0 36 41 33
405.21746826171875 -240.9297332763672 30.0 91 96 84
405.21746826171875 -240.9297332763672 30.0 91 96 84
410.61102294921875 -212.1350555419922 45.0 32 48 46
412.62982177734375 -180.68870544433594 30.0 22 34 31
414.1338195800781 -233.41184997558594 30.0 6 16 4
436.8994445800781 -87.67394256591797 30.0 155 174 186
456.64697265625 -246.24855041503906 31.0 105 99 62
458.4826354980469 -261.78173828125 30.0 125 121 95
465.85040283203125 -229.38427734375 30.0 20 29 20
465.85040283203125 -229.38427734375 30.0 20 29 20
471.0676574707031 -181.22251892089844 30.0 166 146 60
483.01422119140625 -179.0631561279297 30.0 20 27 26
483.01422119140625 -179.0631561279297 30.0 20 27 26
483.62091064453125 -164.3685302734375 30.0 20 29 20
492.2823486328125 -182.56707763671875 36.0 13 74 126
492.29473876953125 -190.4171905517578 30.0 24 85 137
497.2422790527344 -182.1870880126953 35.0 15 74 129
503.4617614746094 -142.2816925048828 30.0 148 171 177
503.7437438964844 -182.02468872070312 33.0 20 79 131
509.4207763671875 -181.78121948242188 32.0 23 73 125
514.2086791992188 -181.5181884765625 31.0 20 73 122
533.2147216796875 -175.0069122314453 30.0 18 33 21
536.1921997070312 -44.18620300292969 30.0 168 186 189
537.5925903320312 -96.9713363647461 30.0 172 197 196
538.5092163085938 -109.66435241699219 30.0 166 189 186
538.9181518554688 -102.82061004638672 30.0 161 184 183
538.9181518554688 -102.82061004638672 30.0 161 184 183
539.7987670898438 -163.29554748535156 29.0 168 192 186
542.6624755859375 -242.17672729492188 30.0 149 159 152
