ply
format ascii 1.0
element vertex 60
property float x
property float y
property float z
property uchar red
property uchar green
property uchar blue
end_header
17.09562873840332 -368.86553955078125 10.0 138 157 153
105.07437896728516 -233.50955200195312 25.0 128 142 134
123.23412322998047 -253.60594177246094 25.0 119 127 116
212.16993713378906 -11.715798377990723 143.0 108 100 91
225.30970764160156 -9.11503791809082 213.0 106 96 78
230.6676483154297 -248.8195037841797 69.0 128 133 132
237.37535095214844 -9.305895805358887 17.0 101 100 84
247.64065551757812 -220.57037353515625 72.0 75 91 69
247.64065551757812 -220.57037353515625 72.0 75 91 69
267.33416748046875 -227.84034729003906 69.0 106 106 102
267.49700927734375 -174.37689208984375 104.0 77 78 66
273.7961120605469 -159.12918090820312 70.0 74 81 63
275.1791076660156 -217.05982971191406 70.0 67 66 48
282.0699462890625 -177.36273193359375 72.0 173 92 58
282.4049987792969 -207.46426391601562 165.0 169 193 201
283.6812438964844 -240.60093688964844 71.0 159 170 168
285.37994384765625 -4.909092903137207 170.0 118 112 102
286.09613037109375 -227.91519165039062 71.0 96 116 114
286.6343688964844 -228.2762908935547 70.0 138 156 155
287.00543212890625 -207.81216430664062 70.0 175 197 204
287.0810852050781 -213.77987670898438 98.0 168 195 205
290.8793640136719 -165.35369873046875 95.0 149 66 51
291.4565124511719 -176.8528594970703 74.0 191 85 50
291.5832824707031 -160.55609130859375 94.0 206 86 73
294.0489501953125 -216.46607971191406 150.0 171 193 201
296.12188720703125 -228.19544982910156 69.0 141 157 154
297.1352233886719 -239.30137634277344 69.0 156 175 164
299.512939453125 -207.9808807373047 141.0 171 193 195
299.9283447265625 -180.60296630859375 83.0 195 82 51
304.039306640625 -166.12295532226562 70.0 65 59 42
305.8133239746094 -191.9110565185547 71.0 69 33 28
310.348876953125 -180.65602111816406 71.0 29 94 155
313.6669921875 -210.4273681640625 70.0 181 167 68
314.573486328125 -227.25753784179688 70.0 114 116 91
315.1255798339844 -176.2037353515625 70.0 32 99 170
315.60736083984375 -176.50582885742188 70.0 32 99 170
315.60736083984375 -176.50582885742188 70.0 32 99 170
315.81640625 -156.00167846679688 69.0 178 200 206
315.81640625 -156.00167846679688 70.0 178 200 206
322.7493896484375 -207.70223999023438 69.0 175 167 57
322.8898620605469 -184.87559509277344 76.0 25 93 168
323.64227294921875 -179.96121215820312 70.0 33 92 167
324.2832336425781 -152.1208038330078 69.0 176 199 205
324.2832336425781 -152.1208038330078 69.0 176 199 205
325.1771240234375 -198.96466064453125 70.0 156 144 79
325.1771240234375 -198.96466064453125 70.0 156 144 79
329.57818603515625 -169.32200622558594 71.0 136 155 146
335.35101318359375 -191.61868286132812 70.0 91 125 124
335.6710510253906 -160.06875610351562 70.0 111 140 122
336.8323059082031 -234.39810180664062 70.0 122 136 133
337.55859375 -150.6967315673828 25.0 169 203 198
342.94439697265625 -169.94651794433594 71.0 125 145 145
343.8718566894531 -234.22689819335938 70.0 115 139 154
368.08026123046875 -253.69923400878906 108.0 114 116 99
371.5615234375 -207.78265380859375 67.0 54 41 28
371.5615234375 -207.78265380859375 67.0 54 41 28
511.83349609375 -64.30107879638672 220.0 116 115 101
600.3776245117188 -213.25778198242188 98.0 245 255 254
606.8884887695312 -273.9106140136719 87.0 153 181 177
615.6455078125 -234.5286102294922 105.0 205 237 243
