ply
format ascii 1.0
element vertex 47
property float x
property float y
property float z
property uchar red
property uchar green
property uchar blue
end_header
263.8595275878906 -240.64833068847656 84.0 121 142 142
267.3048400878906 -197.25143432617188 86.0 38 39 30
267.48809814453125 -172.78466796875 84.0 44 38 30
267.48809814453125 -172.78466796875 84.0 44 38 30
269.1174011230469 -221.44454956054688 83.0 31 32 25
269.65643310546875 -247.7272491455078 82.0 86 100 99
275.80816650390625 -241.14599609375 83.0 148 160 153
277.849609375 -214.07748413085938 83.0 169 198 205
277.849609375 -214.07748413085938 83.0 169 198 205
277.849609375 -214.07748413085938 83.0 169 198 205
281.5437927246094 -234.19740295410156 83.0 152 161 164
281.5437927246094 -234.19740295410156 83.0 152 161 164
286.11181640625 -230.09226989746094 84.0 145 163 170
287.2147521972656 -186.1186065673828 83.0 177 61 31
288.2591247558594 -215.37445068359375 62.0 170 205 224
288.53900146484375 -240.92198181152344 82.0 149 165 164
292.5323486328125 -178.98800659179688 83.0 69 38 27
295.6531066894531 -221.17811584472656 83.0 53 67 66
300.6602478027344 -228.0957489013672 84.0 115 118 92
301.3515930175781 -170.91807556152344 84.0 172 190 195
301.94549560546875 -163.8134765625 84.0 166 189 190
302.1536560058594 -177.55711364746094 84.0 169 191 200
303.5622863769531 -192.9665985107422 84.0 4 66 136
305.03302001953125 -168.47276306152344 84.0 172 193 207
305.0712890625 -202.3965606689453 77.0 76 94 69
306.3002624511719 -233.8341064453125 83.0 147 146 101
308.1332702636719 -213.04058837890625 79.0 164 156 53
309.6916809082031 -183.450439453125 82.0 13 59 101
309.6916809082031 -183.450439453125 56.0 13 59 101
309.9324951171875 -192.23866271972656 83.0 3 66 143
313.61480712890625 -181.31748962402344 83.0 14 47 53
313.61480712890625 -181.31748962402344 83.0 14 47 53
317.2895812988281 -184.29747009277344 53.0 13 54 102
317.8661193847656 -190.33868408203125 53.0 12 65 110
318.69970703125 -199.9654541015625 83.0 6 49 78
318.9378967285156 -173.57447814941406 83.0 105 137 139
318.9378967285156 -173.57447814941406 83.0 105 137 139
322.53515625 -235.2125701904297 85.0 95 118 115
324.724853515625 -181.64161682128906 84.0 165 183 186
324.9864196777344 -193.1788330078125 44.0 169 196 202
333.91607666015625 -186.08045959472656 82.0 168 192 198
559.9998168945312 -96.2146987915039 100.0 38 35 22
559.9998168945312 -96.2146987915039 100.0 38 35 22
559.9998168945312 -96.2146987915039 100.0 38 35 22
592.4105834960938 -210.32386779785156 99.0 194 231 222
595.781982421875 -214.33419799804688 93.0 231 255 253
610.3450927734375 -239.4027557373047 102.0 189 217 225
