ply
format ascii 1.0
element vertex 128
property float x
property float y
property float z
property uchar red
property uchar green
property uchar blue
end_header
405.4342956542969 -245.40484619140625 14.0 87 78 51
429.5982971191406 -242.1582489013672 14.0 11 19 6
431.2370910644531 -245.0625457763672 26.0 12 17 7
432.87646484375 -18.257076263427734 135.0 135 120 103
437.80206298828125 -250.3441925048828 14.0 99 101 82
448.352783203125 -174.82943725585938 965.0 33 26 2
467.8115539550781 -269.4737854003906 14.0 24 23 9
483.0606994628906 -275.3122863769531 14.0 85 83 60
511.99676513671875 -98.07946014404297 13.0 34 35 23
513.4887084960938 -239.90725708007812 293.0 115 105 85
514.4000854492188 -101.01465606689453 13.0 59 69 56
514.406494140625 -94.7948226928711 13.0 136 131 111
515.3450927734375 -77.97361755371094 13.0 66 65 47
516.7711791992188 -147.1763458251953 13.0 110 105 82
517.86328125 -189.3208770751953 13.0 106 108 89
517.9050903320312 -195.99002075195312 13.0 123 121 95
519.699462890625 -132.83717346191406 13.0 119 118 103
520.6114501953125 -74.03746795654297 13.0 12 29 12
522.0900268554688 -110.98359680175781 13.0 40 50 41
522.1251831054688 -147.38800048828125 13.0 78 75 56
522.96337890625 -69.13373565673828 13.0 17 23 10
523.7830200195312 -143.21888732910156 13.0 70 76 59
526.8466186523438 -73.68799591064453 13.0 140 141 123
526.8713989257812 -61.65564727783203 13.0 136 122 102
528.0257568359375 -88.11478424072266 13.0 122 115 94
528.0257568359375 -88.11478424072266 13.0 122 115 94
529.7536010742188 -140.54000854492188 13.0 125 120 101
530.3547973632812 -56.050601959228516 13.0 118 109 84
530.8488159179688 -66.72016143798828 13.0 23 33 20
531.0443725585938 -121.86708068847656 13.0 128 118 98
531.3761596679688 -110.83651733398438 13.0 29 37 29
531.3761596679688 -110.83651733398438 13.0 29 37 29
533.1056518554688 -75.51995086669922 13.0 46 57 37
533.9047241210938 -272.9571533203125 23.0 0 5 0
534.028076171875 -103.9898681640625 13.0 131 130 112
534.0957641601562 -94.81028747558594 13.0 110 105 84
535.8273315429688 -194.3325958251953 13.0 123 113 95
536.2813720703125 -95.97782897949219 13.0 127 120 101
538.816650390625 -93.6380844116211 13.0 114 104 82
538.816650390625 -93.6380844116211 13.0 114 104 82
539.423583984375 -113.02668762207031 13.0 107 109 90
542.3243408203125 -191.11032104492188 13.0 125 122 102
544.360107421875 -77.98799896240234 13.0 67 74 56
545.5231323242188 -112.7616195678711 13.0 84 90 73
553.06640625 -111.8609390258789 13.0 129 121 110
553.6932373046875 -189.53453063964844 13.0 21 27 14
553.927490234375 -140.98622131347656 13.0 35 40 28
554.5067138671875 -137.21499633789062 13.0 99 100 88
554.9891357421875 -128.67739868164062 13.0 124 124 101
555.7031860351562 -146.23948669433594 13.0 52 60 44
556.8812255859375 -196.57901000976562 13.0 124 117 87
558.1002807617188 -70.951904296875 13.0 41 41 34
558.1002807617188 -70.951904296875 13.0 41 41 34
558.5589599609375 -134.0064239501953 13.0 119 116 98
558.5589599609375 -134.0064239501953 13.0 119 116 98
559.3675537109375 -86.16535949707031 13.0 134 127 104
560.9555053710938 -189.67861938476562 13.0 130 127 114
560.9555053710938 -189.67861938476562 13.0 130 127 114
561.1280517578125 -104.70559692382812 13.0 60 75 60
563.3453979492188 -138.57713317871094 13.0 57 58 42
563.3453979492188 -138.57713317871094 13.0 57 58 42
563.9547729492188 -145.53521728515625 13.0 61 58 40
564.87353515625 -190.67857360839844 13.0 111 106 91
564.918701171875 -98.127197265625 13.0 140 137 119
568.681884765625 -137.5110626220703 13.0 110 109 93
568.7928466796875 -188.87509155273438 13.0 123 118 101
572.4324340820312 -78.97193908691406 13.0 128 123 97
573.4876708984375 -112.383056640625 13.0 24 36 28
576.5012817382812 -79.50663757324219 13.0 118 115 91
576.5012817382812 -79.50663757324219 13.0 118 115 91
578.3137817382812 -77.8735580444336 13.0 126 119 98
578.3137817382812 -77.8735580444336 13.0 126 119 98
579.3964233398438 -129.5486297607422 13.0 53 61 46
579.3964233398438 -129.5486297607422 13.0 53 61 46
581.159423828125 -79.4175033569336 12.0 126 122 98
589.4966430664062 -90.05409240722656 14.0 123 113 93
590.7139892578125 -128.88796997070312 13.0 123 114 91
591.6615600585938 -188.80068969726562 13.0 117 112 89
593.0908203125 -112.29292297363281 13.0 41 42 28
593.6117553710938 -184.5245361328125 13.0 126 123 107
596.581298828125 -97.245849609375 13.0 127 115 99
597.3372192382812 -109.33946228027344 13.0 32 42 33
599.5795288085938 -196.1385955810547 13.0 109 111 90
599.6065063476562 -184.33741760253906 13.0 122 117 93
599.627685546875 -287.86187744140625 35.0 103 99 70
599.7603149414062 -190.17398071289062 13.0 37 43 30
600.1340942382812 -128.51438903808594 13.0 118 115 91
600.33837890625 -142.63282775878906 13.0 27 35 24
600.631591796875 -277.2006530761719 13.0 105 97 79
602.8611450195312 -187.81387329101562 13.0 101 98 83
603.2819213867188 -94.54047393798828 13.0 118 109 90
603.2819213867188 -94.54047393798828 13.0 118 109 90
604.388671875 -111.39502716064453 13.0 83 84 70
605.6710205078125 -196.077880859375 13.0 111 104 83
605.748779296875 -133.74246215820312 13.0 114 109 85
606.1243286132812 -137.40061950683594 13.0 75 74 61
606.1243286132812 -137.40061950683594 13.0 75 74 61
606.68408203125 -147.41314697265625 13.0 21 31 15
607.5792846679688 -143.527099609375 13.0 23 34 18
608.5106811523438 -192.9517822265625 13.0 54 62 47
608.632080078125 -100.16392517089844 13.0 118 119 105
608.7384643554688 -188.27139282226562 13.0 88 94 77
611.1748657226562 -196.44483947753906 13.0 116 106 86
612.0051879882812 -264.7834167480469 13.0 75 66 43
612.2326049804688 -114.65119171142578 13.0 53 67 68
612.3968505859375 -146.37820434570312 13.0 25 41 33
613.6044921875 -192.92051696777344 13.0 74 76 62
613.6458740234375 -198.4273223876953 13.0 113 101 86
615.1417236328125 -124.52002716064453 13.0 162 172 162
616.9014282226562 -189.93487548828125 13.0 97 112 102
617.9945678710938 -146.79525756835938 13.0 166 191 193
617.9945678710938 -146.79525756835938 13.0 166 191 193
618.2581176757812 -116.72615051269531 13.0 161 176 182
618.2581176757812 -116.72615051269531 13.0 161 176 182
620.0923461914062 -191.93736267089844 13.0 157 174 182
620.4193115234375 -186.6826934814453 13.0 153 175 184
621.8239135742188 -103.45172882080078 13.0 162 184 195
621.8239135742188 -103.45172882080078 13.0 162 184 195
621.8239135742188 -103.45172882080078 13.0 162 184 195
621.8239135742188 -103.45172882080078 13.0 162 184 195
628.1665649414062 -197.00042724609375 13.0 157 179 185
628.5382690429688 -147.13656616210938 13.0 154 174 181
630.524658203125 -287.47412109375 35.0 111 112 98
631.1890869140625 -191.460693359375 13.0 161 179 189
632.62841796875 -279.5982971191406 13.0 111 106 93
632.9590454101562 -111.85540008544922 13.0 167 185 192
633.7562255859375 -193.104736328125 13.0 154 178 184
633.8624877929688 -197.12628173828125 13.0 157 177 186
