ply
format ascii 1.0
element vertex 342
property float x
property float y
property float z
property uchar red
property uchar green
property uchar blue
end_header
9.117193222045898 -269.0360412597656 16.0 145 153 140
10.063992500305176 -284.92437744140625 16.0 147 152 142
11.958266258239746 -226.65628051757812 17.0 139 151 141
295.8880920410156 -200.189453125 41.0 160 179 177
308.18060302734375 -75.30226135253906 107.0 174 185 187
308.2842712402344 -89.05836486816406 107.0 170 186 183
309.0591125488281 -116.304931640625 109.0 166 180 177
311.0278625488281 -24.757587432861328 32.0 173 191 190
331.4385070800781 -142.0543670654297 23.0 102 93 72
331.4971618652344 -229.2947540283203 39.0 101 103 86
337.20416259765625 -233.74407958984375 39.0 86 80 63
345.62091064453125 -239.37277221679688 38.0 86 81 55
346.4410095214844 -58.992923736572266 38.0 58 21 5
346.9645080566406 -72.25916290283203 38.0 48 14 0
349.95257568359375 -74.46028900146484 38.0 126 77 59
350.37725830078125 -75.88871765136719 38.0 125 75 54
350.37725830078125 -75.88871765136719 38.0 125 75 54
356.9118347167969 -169.0044403076172 38.0 112 105 79
356.9118347167969 -169.0044403076172 38.0 112 105 79
358.25030517578125 -170.74082946777344 38.0 117 110 84
359.5782775878906 -176.7466583251953 38.0 123 110 83
359.5782775878906 -176.7466583251953 38.0 123 110 83
361.5260925292969 -182.07879638671875 38.0 127 113 91
364.86785888671875 -173.3916778564453 38.0 112 105 79
365.23309326171875 -68.45142364501953 38.0 153 114 114
365.23309326171875 -68.45142364501953 38.0 153 114 114
365.8133239746094 -192.89129638671875 38.0 119 110 87
370.62860107421875 -71.03657531738281 38.0 129 85 68
373.86859130859375 -170.81800842285156 38.0 115 108 87
376.4072570800781 -201.29898071289062 38.0 101 99 72
376.6108703613281 -181.01626586914062 38.0 63 64 36
380.9131774902344 -11.541669845581055 38.0 131 114 84
381.9482421875 -209.87429809570312 38.0 117 105 81
381.9482421875 -209.87429809570312 38.0 117 105 81
383.1025695800781 -21.783706665039062 38.0 132 123 102
383.74554443359375 -187.23495483398438 38.0 54 49 32
387.9966125488281 -32.65941619873047 38.0 140 90 65
388.2105407714844 -189.53421020507812 38.0 114 104 84
389.3075866699219 -57.43111038208008 58.0 122 62 42
390.504638671875 -96.9869613647461 38.0 123 105 84
391.6353759765625 -190.21412658691406 38.0 120 109 86
393.9060363769531 -85.77149963378906 38.0 125 58 39
393.9682312011719 -181.92669677734375 38.0 54 52 23
394.5159606933594 -190.72593688964844 38.0 113 103 78
394.71484375 -199.49075317382812 59.0 100 95 73
396.015625 -119.82272338867188 38.0 108 97 72
396.5049743652344 -82.20477294921875 38.0 130 62 39
396.5049743652344 -82.20477294921875 38.0 130 62 39
398.8917541503906 -63.96604919433594 38.0 115 63 36
399.21514892578125 -113.59254455566406 38.0 108 97 77
402.050537109375 -23.274925231933594 38.0 166 182 180
402.09527587890625 -217.4894256591797 38.0 117 101 73
402.9658203125 -170.61756896972656 38.0 75 75 48
402.9658203125 -170.61756896972656 38.0 75 75 48
403.0850830078125 -176.6315155029297 38.0 38 41 13
403.1802673339844 -82.10647583007812 38.0 202 176 164
404.7243957519531 -114.52073669433594 38.0 179 180 173
404.7302551269531 -12.900790214538574 38.0 164 180 185
406.0938720703125 -128.5695037841797 38.0 163 177 173
407.2329406738281 -124.63316345214844 38.0 156 170 166
407.2329406738281 -124.63316345214844 38.0 156 170 166
407.77239990234375 -131.9779815673828 38.0 166 177 175
407.77239990234375 -131.9779815673828 38.0 166 177 175
409.31317138671875 -29.20993995666504 38.0 160 180 184
409.39599609375 -128.42507934570312 38.0 157 173 174
409.42889404296875 -16.258712768554688 38.0 153 169 170
409.8232727050781 -87.80492401123047 44.0 163 179 184
410.3443603515625 -176.88087463378906 38.0 155 170 176
411.57391357421875 -209.03839111328125 38.0 159 175 173
412.1907653808594 -78.23777770996094 38.0 114 128 118
412.1907653808594 -78.23777770996094 38.0 114 128 118
412.3944091796875 -19.099679946899414 38.0 174 193 200
412.869384765625 -13.29793930053711 38.0 138 160 164
412.9139709472656 -223.50408935546875 38.0 117 103 82
413.2890319824219 -84.6552963256836 38.0 123 146 145
414.61181640625 -128.52308654785156 38.0 138 152 151
414.6793518066406 -209.1267547607422 38.0 153 171 180
415.1381530761719 -196.32347106933594 38.0 166 176 183
415.1381530761719 -196.32347106933594 38.0 166 176 183
415.8094787597656 -113.95512390136719 38.0 160 174 177
416.095947265625 -19.9072322845459 38.0 177 192 200
416.7025146484375 -15.540863990783691 38.0 103 124 119
418.9652099609375 -17.955778121948242 38.0 149 165 168
419.00146484375 -196.78915405273438 38.0 159 172 178
419.00146484375 -196.78915405273438 38.0 159 172 178
419.4142150878906 -118.68728637695312 38.0 131 151 151
419.4142150878906 -118.68728637695312 38.0 131 151 151
420.119873046875 -73.90530395507812 38.0 0 13 2
420.28289794921875 -14.943260192871094 38.0 160 175 179
420.70660400390625 -182.34048461914062 38.0 165 186 190
421.2491455078125 -204.0751190185547 38.0 124 146 159
422.14434814453125 -70.28785705566406 38.0 144 162 160
422.1908874511719 -19.357175827026367 38.0 132 154 161
422.4744567871094 -132.65103149414062 38.0 151 172 176
422.9483337402344 -83.28534698486328 38.0 158 180 182
423.3133544921875 -178.83888244628906 38.0 146 166 170
423.9021911621094 -199.45823669433594 38.0 154 174 176
423.9021911621094 -199.45823669433594 38.0 154 174 176
424.038330078125 -36.126407623291016 38.0 150 172 172
424.2502136230469 -127.6427993774414 38.0 132 151 149
424.763916015625 -204.3021697998047 38.0 129 150 164
425.66375732421875 -118.39832305908203 38.0 97 117 117
425.66375732421875 -118.39832305908203 38.0 97 117 117
426.4221496582031 -79.98672485351562 38.0 21 35 23
428.5004577636719 -223.0840606689453 38.0 124 108 82
428.876708984375 -89.2880859375 38.0 156 172 177
429.3874816894531 -181.9868927001953 38.0 164 180 185
430.1172180175781 -20.076196670532227 38.0 106 131 132
430.6447448730469 -29.536924362182617 38.0 159 177 184
431.3068542480469 -86.4803466796875 38.0 103 119 117
431.41851806640625 -178.7080535888672 38.0 156 172 177
431.90093994140625 -69.49788665771484 38.0 169 185 188
431.9240417480469 -175.15878295898438 38.0 94 117 114
431.9256286621094 -169.5443878173828 38.0 36 60 45
432.9371337890625 -208.88040161132812 38.0 150 170 175
432.9371337890625 -208.88040161132812 38.0 150 170 175
433.4769287109375 -165.94793701171875 38.0 101 118 114
433.5653381347656 -35.31757354736328 38.0 168 191 195
433.81201171875 -83.04862213134766 38.0 97 116 112
434.5661926269531 -188.12013244628906 38.0 151 169 174
434.9909362792969 -172.11721801757812 38.0 139 157 162
435.0911865234375 -200.56723022460938 38.0 109 127 130
435.8957214355469 -80.30950927734375 38.0 36 53 49
436.3494567871094 -76.654296875 38.0 128 142 139
436.65472412109375 -122.7350845336914 38.0 160 178 179
437.62322998046875 -174.7720489501953 38.0 76 96 98
438.5036315917969 -219.3550567626953 38.0 101 96 72
438.5356140136719 -34.323097229003906 38.0 160 175 181
438.8317565917969 -85.76927185058594 38.0 119 135 136
439.5205078125 -39.49268341064453 38.0 76 95 91
439.92388916015625 -168.94113159179688 38.0 1 18 8
440.077880859375 -222.83694458007812 38.0 118 115 93
440.31158447265625 -115.5435791015625 38.0 157 174 182
440.3610534667969 -67.52584075927734 38.0 146 167 162
440.51251220703125 -165.89993286132812 38.0 26 42 38
440.85302734375 -32.235469818115234 40.0 163 176 182
441.74951171875 -172.30389404296875 38.0 98 109 113
442.293701171875 -138.22372436523438 38.0 60 76 72
442.293701171875 -138.22372436523438 37.0 60 76 72
443.19378662109375 -163.7767333984375 38.0 93 107 99
443.6583557128906 -34.12376403808594 39.0 168 183 191
443.7836608886719 -144.35562133789062 38.0 45 63 62
443.7836608886719 -144.35562133789062 38.0 45 63 62
444.0196838378906 -75.70391845703125 38.0 117 131 134
444.49676513671875 -181.4193572998047 38.0 149 166 171
444.4989013671875 -225.066650390625 32.0 127 120 97
445.9341125488281 -165.6000518798828 38.0 46 57 57
446.26239013671875 -232.99261474609375 38.0 85 81 71
446.6010437011719 -175.0164031982422 38.0 111 125 124
447.3905029296875 -137.7993621826172 38.0 145 161 153
448.4209899902344 -163.16273498535156 38.0 12 29 16
448.4434509277344 -75.68717193603516 38.0 114 130 133
450.46173095703125 -72.00049591064453 38.0 87 105 101
451.1343994140625 -165.67425537109375 38.0 122 135 139
451.28985595703125 -78.86566162109375 38.0 73 100 80
452.9393005371094 -180.8695526123047 38.0 152 167 170
453.4144287109375 -75.48143768310547 38.0 133 149 152
455.0082092285156 -168.45162963867188 38.0 55 79 73
455.2591857910156 -33.6294059753418 38.0 156 172 177
455.36962890625 -71.92562866210938 38.0 109 123 120
455.4158935546875 -120.49622344970703 38.0 76 96 100
455.6361999511719 -165.5632781982422 38.0 128 137 139
456.88836669921875 -180.2321014404297 38.0 144 166 170
457.71673583984375 -31.16215705871582 38.0 175 189 193
457.77410888671875 -25.802845001220703 38.0 160 175 183
458.5019836425781 -171.48342895507812 38.0 173 188 198
458.5019836425781 -171.48342895507812 38.0 173 188 198
458.9289245605469 -74.96173095703125 38.0 78 95 91
459.7393798828125 -68.1690673828125 38.0 143 157 154
460.6249694824219 -161.20657348632812 37.0 132 151 142
460.6249694824219 -161.20657348632812 37.0 132 151 142
460.9295959472656 -121.41055297851562 38.0 132 147 153
461.4433898925781 -174.03269958496094 38.0 76 97 92
461.99072265625 -38.70452880859375 38.0 122 141 130
461.99072265625 -38.70452880859375 38.0 122 141 130
462.60491943359375 -84.05747985839844 38.0 73 94 90
462.7264404296875 -65.48796844482422 38.0 110 120 118
465.1907043457031 -23.568490982055664 38.0 160 175 183
465.9496154785156 -67.9536361694336 38.0 34 41 40
466.8460388183594 -28.381269454956055 38.0 81 109 102
467.0174560546875 -33.41770553588867 38.0 95 113 112
467.8794250488281 -180.04220581054688 38.0 149 169 176
467.8794250488281 -180.04220581054688 38.0 149 169 176
469.3021240234375 -221.26904296875 38.0 113 99 77
470.4389953613281 -137.02157592773438 38.0 167 183 183
472.34619140625 -66.8767318725586 38.0 37 54 50
474.32415771484375 -164.46243286132812 38.0 15 25 16
474.97088623046875 -221.37490844726562 38.0 113 103 83
476.3671875 -136.7053985595703 38.0 152 168 160
477.29071044921875 -161.42127990722656 38.0 109 123 116
479.31805419921875 -233.0703887939453 31.0 127 128 116
479.5496826171875 -36.56974792480469 38.0 141 166 165
480.3298034667969 -23.99553680419922 38.0 159 177 182
480.77734375 -217.51724243164062 38.0 101 94 71
481.1546630859375 -67.42227172851562 38.0 129 150 146
481.7191467285156 -135.92498779296875 38.0 157 179 169
482.61602783203125 -7.093283176422119 38.0 160 178 185
483.02923583984375 -32.557010650634766 34.0 110 126 118
488.29412841796875 -66.03111267089844 37.0 167 183 183
489.8486328125 -166.56996154785156 43.0 16 34 21
490.51904296875 -122.42188262939453 92.0 157 173 181
492.03399658203125 -29.10664176940918 37.0 94 119 118
492.561767578125 -23.41900062561035 38.0 157 174 180
494.8872985839844 -31.882537841796875 38.0 97 116 112
499.33209228515625 -66.0723648071289 37.0 98 122 116
500.11468505859375 -5.667646408081055 29.0 158 178 187
502.98870849609375 -22.97110939025879 38.0 155 170 176
503.24322509765625 -30.660741806030273 38.0 77 93 92
503.26666259765625 -65.90632629394531 52.0 5 21 17
505.3061218261719 -28.657075881958008 38.0 159 174 175
505.42626953125 -6.667821407318115 38.0 158 178 187
505.8096923828125 -21.390966415405273 38.0 157 174 180
505.8096923828125 -21.390966415405273 38.0 157 174 180
509.035888671875 -162.0037384033203 58.0 0 17 9
511.1016540527344 -134.57530212402344 37.0 106 124 120
511.3543701171875 -20.715986251831055 38.0 154 174 178
511.69873046875 -159.7646026611328 37.0 117 135 136
512.2185668945312 -171.4539337158203 37.0 157 178 180
515.2720947265625 -64.47549438476562 37.0 145 164 160
517.4662475585938 -159.5446014404297 65.0 168 188 186
518.3429565429688 -174.0869140625 36.0 150 170 175
519.943359375 -209.3125 37.0 146 166 170
520.1910400390625 -161.92262268066406 37.0 7 29 11
521.3397827148438 -64.3008804321289 37.0 40 52 43
525.1737670898438 -202.05165100097656 37.0 149 166 171
525.9292602539062 -18.475711822509766 38.0 157 177 182
525.981689453125 -29.711240768432617 38.0 86 109 106
528.4606323242188 -199.47784423828125 37.0 122 140 138
528.8843383789062 -26.712825775146484 38.0 157 174 182
528.8843383789062 -26.712825775146484 38.0 157 174 182
530.6494140625 -203.37603759765625 37.0 151 168 176
530.8905639648438 -76.7038345336914 38.0 18 33 21
531.5757446289062 -36.67085266113281 38.0 168 192 196
531.8282470703125 -29.649011611938477 38.0 155 175 180
533.3466186523438 -214.3560791015625 37.0 93 91 66
534.0252685546875 -61.27493667602539 37.0 152 170 169
534.0252685546875 -61.27493667602539 37.0 152 170 169
534.3048706054688 -195.68942260742188 37.0 121 143 143
535.1864013671875 -114.0621337890625 38.0 117 133 129
535.9038696289062 -203.2921905517578 37.0 151 169 174
537.05029296875 -63.8516960144043 37.0 150 166 167
537.3291015625 -76.0320816040039 37.0 19 31 20
539.8408203125 -79.17993927001953 37.0 0 10 0
541.7134399414062 -202.8059539794922 37.0 154 170 173
541.7134399414062 -202.8059539794922 37.0 154 170 173
544.0269775390625 -114.95956420898438 37.0 146 169 173
553.4917602539062 -72.55104064941406 29.0 62 79 66
554.7986450195312 -62.9356575012207 37.0 16 36 43
560.3794555664062 -74.8940658569336 29.0 18 30 16
561.5171508789062 -166.01388549804688 37.0 149 167 169
561.5171508789062 -166.01388549804688 37.0 149 167 169
572.259765625 -238.53335571289062 15.0 109 110 99
572.8775024414062 -65.04019927978516 38.0 160 183 184
573.7887573242188 -62.40483093261719 38.0 100 121 119
573.80419921875 -125.45635986328125 37.0 46 57 55
573.8621826171875 -103.65741729736328 37.0 92 104 101
574.1083374023438 -134.85145568847656 37.0 36 53 45
574.586669921875 -109.52398681640625 37.0 94 111 101
574.7454223632812 -113.5108413696289 37.0 116 121 122
576.270263671875 -117.0346908569336 37.0 93 107 106
577.8919067382812 -95.12700653076172 37.0 39 58 47
578.394775390625 -111.80382537841797 37.0 64 76 78
579.5363159179688 -23.78445816040039 39.0 155 175 184
579.552978515625 -121.94348907470703 37.0 144 162 163
579.8838500976562 -130.3775177001953 37.0 142 159 151
579.966552734375 -74.37677764892578 26.0 11 28 15
581.0891723632812 -108.71358489990234 37.0 54 68 65
581.5952758789062 -97.94097900390625 37.0 0 13 0
582.6084594726562 -89.40815734863281 37.0 156 176 183
583.0437622070312 -61.730918884277344 38.0 1 17 18
583.1898803710938 -65.01042938232422 30.0 0 4 5
586.0828857421875 -134.89605712890625 37.0 84 112 110
586.1054077148438 -102.06009674072266 37.0 119 135 138
587.2088623046875 -122.494873046875 37.0 34 46 37
587.3234252929688 -109.66290283203125 37.0 40 66 55
587.792724609375 -193.99154663085938 37.0 13 25 22
587.8009643554688 -105.7773208618164 37.0 151 169 170
587.9656372070312 -170.669189453125 37.0 150 166 174
588.5492553710938 -91.60004425048828 38.0 156 173 181
588.7047119140625 -128.60826110839844 37.0 139 155 153
588.7047119140625 -128.60826110839844 37.0 139 155 153
589.0675659179688 -28.57400894165039 39.0 149 166 174
589.7598876953125 -113.17945098876953 37.0 54 73 69
591.33984375 -125.82464599609375 37.0 132 146 145
591.33984375 -125.82464599609375 37.0 132 146 145
591.7887573242188 -131.27159118652344 37.0 26 43 30
593.499755859375 -107.32442474365234 37.0 123 134 136
593.6101684570312 -111.58850860595703 37.0 140 160 160
593.8387451171875 -88.86507415771484 38.0 160 175 181
594.4015502929688 -116.98917388916016 37.0 56 72 73
594.78857421875 -128.55743408203125 37.0 86 102 103
594.903076171875 -73.83841705322266 24.0 24 44 26
595.010009765625 -134.41802978515625 37.0 106 123 112
595.2655639648438 -29.16828155517578 39.0 161 179 182
597.5302734375 -178.85720825195312 37.0 22 37 20
597.6563720703125 -115.236572265625 37.0 24 50 48
598.082275390625 -128.85711669921875 37.0 123 141 142
598.260498046875 -206.98944091796875 37.0 153 176 177
599.0317993164062 -92.15587615966797 38.0 162 177 183
599.15576171875 -132.3129425048828 37.0 126 150 140
599.279541015625 -113.06255340576172 37.0 86 108 108
599.4393920898438 -123.26739501953125 37.0 124 143 139
599.4393920898438 -123.26739501953125 37.0 124 143 139
600.5859375 -183.06759643554688 37.0 155 175 184
600.7654418945312 -148.20184326171875 37.0 98 119 108
601.5326538085938 -101.96739196777344 38.0 153 176 175
601.701171875 -111.2221450805664 37.0 167 190 185
601.7378540039062 -71.07644653320312 23.0 178 200 202
602.4650268554688 -219.528564453125 35.0 119 114 95
603.2037353515625 -105.14383697509766 38.0 146 173 174
603.3759765625 -129.72645568847656 37.0 154 173 173
603.556640625 -177.08299255371094 77.0 147 175 169
603.9902954101562 -120.8788833618164 37.0 155 175 177
603.9902954101562 -120.8788833618164 37.0 155 175 177
604.2053833007812 -93.38497161865234 38.0 160 175 181
606.1216430664062 -128.25823974609375 38.0 157 175 177
606.1934204101562 -181.74801635742188 37.0 154 172 177
607.0122680664062 -122.23053741455078 38.0 160 173 180
607.1785888671875 -88.46512603759766 38.0 159 174 177
607.370361328125 -134.41171264648438 37.0 158 176 179
608.5040893554688 -192.44940185546875 37.0 157 175 177
608.89013671875 -123.70014953613281 38.0 160 173 180
610.9401245117188 -111.71952056884766 38.0 160 169 172
610.9403686523438 -107.66520690917969 38.0 169 178 178
611.4528198242188 -139.3739776611328 38.0 159 172 176
611.8643188476562 -185.553955078125 45.0 153 177 183
613.5473022460938 -216.4909210205078 32.0 128 118 96
613.7432250976562 -122.83689880371094 38.0 94 101 93
614.8076171875 -90.66151428222656 38.0 111 60 42
614.8076171875 -90.66151428222656 30.0 111 60 42
616.9876098632812 -177.83383178710938 37.0 92 88 78
616.9876098632812 -177.83383178710938 37.0 92 88 78
617.981201171875 -114.12535858154297 38.0 118 115 93
618.4031372070312 -216.0054931640625 31.0 128 121 98
618.4839477539062 -68.29495239257812 39.0 127 54 29
619.3990478515625 -210.22415161132812 37.0 94 85 55
619.3990478515625 -210.22415161132812 37.0 94 85 55
620.1592407226562 -110.39266204833984 38.0 120 105 74
622.26513671875 -123.8140869140625 38.0 104 97 71
622.8750610351562 -81.67427825927734 39.0 133 57 41
623.7781372070312 -126.59912109375 38.0 112 105 79
637.0308837890625 -118.59284210205078 29.0 102 94 59
