ply
format ascii 1.0
element vertex 56
property float x
property float y
property float z
property uchar red
property uchar green
property uchar blue
end_header
57.96908950805664 -275.25860595703125 23.0 135 148 136
153.49635314941406 -14.591538429260254 68.0 89 100 104
206.19017028808594 -10.006426811218262 187.0 97 110 95
261.6168518066406 -8.155763626098633 227.0 97 92 93
262.21966552734375 -217.8906707763672 68.0 94 98 102
290.9913024902344 -213.10586547851562 66.0 77 75 76
298.6983337402344 -170.32164001464844 64.0 191 89 42
302.3403625488281 -192.58091735839844 67.0 174 188 185
302.8451843261719 -224.60958862304688 65.0 123 136 142
304.37847900390625 -215.4281768798828 103.0 178 198 207
307.2962646484375 -229.8422088623047 66.0 149 161 163
312.5832824707031 -173.54139709472656 63.0 197 81 53
313.04681396484375 -148.22145080566406 66.0 203 68 51
313.04681396484375 -148.22145080566406 66.0 203 68 51
313.07232666015625 -168.8882293701172 66.0 195 81 55
313.07232666015625 -168.8882293701172 66.0 195 81 55
313.0998840332031 -225.12380981445312 66.0 133 153 153
314.26666259765625 -143.9189453125 79.0 197 59 47
314.797119140625 -236.98553466796875 67.0 155 168 170
317.2896423339844 -173.0637969970703 54.0 189 77 52
321.3384704589844 -170.38197326660156 67.0 95 42 29
321.9309387207031 -158.14576721191406 66.0 93 60 52
325.3456726074219 -213.00367736816406 66.0 170 167 106
325.3456726074219 -213.00367736816406 66.0 170 167 106
326.07684326171875 -170.01461791992188 64.0 50 96 147
329.9635314941406 -202.43072509765625 65.0 178 160 78
331.0073547363281 -199.59689331054688 48.0 176 154 64
333.4370422363281 -138.2681427001953 66.0 174 196 201
333.94171142578125 -168.81796264648438 66.0 28 94 149
333.94171142578125 -168.81796264648438 66.0 28 94 149
337.1925964355469 -175.05685424804688 66.0 0 67 147
339.9400329589844 -168.8483428955078 66.0 23 77 131
343.4053039550781 -172.71322631835938 66.0 18 84 162
344.34869384765625 -143.15476989746094 65.0 177 190 198
344.34869384765625 -143.15476989746094 65.0 177 190 198
345.2742919921875 -192.9259033203125 66.0 125 134 107
346.61224365234375 -191.5873260498047 66.0 63 94 110
347.9035949707031 -165.45376586914062 66.0 33 58 55
350.29852294921875 -162.29641723632812 65.0 99 120 111
350.7265625 -217.8000946044922 110.0 95 91 56
352.2065124511719 -165.50965881347656 67.0 30 51 49
354.0714111328125 -231.45692443847656 38.0 108 134 128
355.69219970703125 -185.55880737304688 66.0 156 181 180
356.2705078125 -151.32412719726562 66.0 162 190 190
356.5618591308594 -172.11227416992188 64.0 175 195 197
364.80535888671875 -163.81117248535156 66.0 168 182 183
366.9952392578125 -178.5518798828125 44.0 168 192 196
376.3880615234375 -166.76275634765625 67.0 173 195 202
384.765869140625 -209.13082885742188 66.0 42 52 40
384.8363037109375 -244.25350952148438 23.0 136 150 147
416.42889404296875 -273.2185363769531 16.0 113 125 118
488.9867248535156 -294.4600524902344 37.0 125 124 113
502.6083984375 -62.83858108520508 216.0 118 118 111
532.5405883789062 -236.28695678710938 1178.0 85 86 77
580.231689453125 -221.86489868164062 119.0 128 123 125
622.6659545898438 -178.94358825683594 110.0 250 255 251
