ply
format ascii 1.0
element vertex 58
property float x
property float y
property float z
property uchar red
property uchar green
property uchar blue
end_header
312.7087707519531 -119.60070037841797 53.0 164 173 171
312.9081726074219 -120.14906311035156 53.0 164 173 171
314.58319091796875 -152.93675231933594 53.0 138 143 138
319.3979187011719 -115.38400268554688 2862.0 166 177 177
323.6794128417969 -190.447021484375 48.0 109 110 103
328.916748046875 -137.89157104492188 54.0 74 39 28
328.916748046875 -137.89157104492188 54.0 74 39 28
330.67755126953125 -207.92491149902344 53.0 152 166 169
334.95635986328125 -190.40975952148438 44.0 149 165 170
343.6416015625 -158.3878936767578 53.0 166 62 29
343.6416015625 -158.3878936767578 53.0 166 62 29
344.445556640625 -193.84249877929688 52.0 151 172 176
344.5429992675781 -146.85421752929688 52.0 51 27 12
347.8243103027344 -117.59424591064453 53.0 156 44 26
348.8130187988281 -151.60531616210938 53.0 165 68 35
349.5624084472656 -115.09842681884766 53.0 156 44 26
349.73663330078125 -251.23410034179688 53.0 135 129 119
354.0545959472656 -194.5224609375 53.0 152 167 173
354.9593200683594 -195.27606201171875 53.0 155 168 174
355.0581970214844 -123.47611236572266 53.0 159 45 23
355.3397521972656 -222.7352294921875 53.0 48 53 41
355.3397521972656 -222.7352294921875 53.0 48 53 41
355.5205383300781 -234.1339874267578 53.0 126 126 121
359.95458984375 -152.32786560058594 39.0 142 67 46
367.45587158203125 -141.09841918945312 53.0 171 180 178
371.87615966796875 -249.6352081298828 53.0 135 129 110
372.15869140625 -207.4205780029297 53.0 163 142 47
378.91656494140625 -114.02678680419922 43.0 4 18 15
379.9565734863281 -190.03733825683594 52.0 163 145 51
380.9218444824219 -190.3967742919922 52.0 162 144 48
383.300537109375 -161.7811737060547 52.0 17 77 141
383.3407287597656 -234.74884033203125 52.0 114 109 81
383.6206970214844 -221.833740234375 52.0 13 19 0
384.0226745605469 -194.43685913085938 53.0 162 141 41
384.3016052246094 -194.1692657470703 53.0 162 141 41
384.45703125 -122.19935607910156 53.0 148 168 175
384.45703125 -122.19935607910156 82.0 148 168 175
387.65887451171875 -157.82716369628906 53.0 22 83 146
387.67303466796875 -191.4821319580078 53.0 167 149 48
387.8565673828125 -114.0069351196289 53.0 12 29 16
388.57647705078125 -119.17745971679688 53.0 147 166 176
390.74420166015625 -150.19876098632812 53.0 18 36 37
391.1753845214844 -157.3160858154297 51.0 17 77 141
393.02435302734375 -192.64747619628906 53.0 166 142 52
394.0310974121094 -162.1478729248047 78.0 24 79 130
394.2835388183594 -145.7608642578125 53.0 172 189 197
394.2835388183594 -145.7608642578125 53.0 172 189 197
396.02801513671875 -182.7103729248047 52.0 44 68 81
396.02801513671875 -182.7103729248047 52.0 44 68 81
398.2080078125 -198.41555786132812 38.0 46 43 1
406.6978759765625 -171.99920654296875 52.0 154 169 179
424.1629943847656 -145.8295440673828 52.0 15 29 19
424.4587097167969 -153.99119567871094 53.0 148 168 175
424.7149353027344 -183.70404052734375 52.0 18 25 19
425.6640625 -149.8413848876953 52.0 154 172 182
427.6195373535156 -221.52389526367188 52.0 5 21 20
432.1512756347656 -225.07073974609375 52.0 78 89 94
438.5299377441406 -215.4945526123047 53.0 140 160 167
