ply
format ascii 1.0
element vertex 67
property float x
property float y
property float z
property uchar red
property uchar green
property uchar blue
end_header
363.9954833984375 -23.075359344482422 26.0 176 196 203
368.84808349609375 -90.12059783935547 26.0 156 177 172
369.89556884765625 -141.66481018066406 30.0 0 17 1
378.717041015625 -93.01575469970703 26.0 44 45 40
388.6370544433594 -84.30227661132812 29.0 36 41 40
398.44500732421875 -92.0376968383789 24.0 63 39 24
403.71063232421875 -254.8626251220703 25.0 125 125 118
405.9530334472656 -204.5609588623047 25.0 139 159 163
415.8714904785156 -254.35470581054688 24.0 115 120 112
418.57861328125 -160.99050903320312 24.0 30 35 34
426.0301818847656 -264.0166015625 25.0 122 123 110
427.5293884277344 -90.58705139160156 22.0 51 56 55
430.1965026855469 -100.04148864746094 26.0 176 81 50
430.1965026855469 -100.04148864746094 26.0 176 81 50
431.490234375 -75.66448211669922 25.0 176 59 40
433.5461730957031 -172.77694702148438 25.0 148 168 170
434.3424377441406 -235.5158233642578 25.0 16 30 23
434.62158203125 -77.63594055175781 25.0 173 58 43
434.62158203125 -77.63594055175781 25.0 173 58 43
434.68988037109375 -189.33309936523438 23.0 142 164 166
435.6191101074219 -120.3020248413086 24.0 181 80 44
435.828857421875 -159.79835510253906 25.0 37 38 31
439.6936950683594 -13.076861381530762 26.0 172 192 197
440.1583557128906 -86.82461547851562 25.0 41 41 37
441.5927734375 -100.35611724853516 20.0 164 83 51
442.23577880859375 -122.09446716308594 20.0 147 79 52
442.9917907714844 -243.8081817626953 25.0 84 83 74
443.4114074707031 -21.692365646362305 26.0 86 44 33
444.9183044433594 -134.6044464111328 25.0 84 51 36
447.7002868652344 -113.84429168701172 25.0 30 24 16
451.2967834472656 -173.28440856933594 25.0 27 35 28
452.0643615722656 -88.36160278320312 25.0 10 25 17
452.0643615722656 -88.36160278320312 25.0 10 25 17
456.5888366699219 -83.82652282714844 25.0 186 213 216
459.48626708984375 -262.8852233886719 26.0 126 118 86
460.4955749511719 -79.91558074951172 25.0 154 176 185
460.4955749511719 -79.91558074951172 25.0 154 176 185
480.5245666503906 -61.854122161865234 25.0 151 173 182
491.4036560058594 -201.77407836914062 25.0 152 136 38
512.0358276367188 -227.59164428710938 25.0 177 162 86
514.4053344726562 -239.03579711914062 63.0 10 17 9
515.6461791992188 -174.61936950683594 25.0 189 167 79
515.682373046875 -231.52833557128906 25.0 22 28 15
515.682373046875 -231.52833557128906 18.0 22 28 15
518.1377563476562 -116.51193237304688 17.0 21 36 46
518.3734130859375 -170.3722686767578 25.0 12 10 0
520.547119140625 -168.81613159179688 25.0 39 47 36
523.4323120117188 -19.38844871520996 25.0 183 210 215
523.4323120117188 -19.38844871520996 25.0 183 210 215
523.8841552734375 -95.97205352783203 25.0 34 46 43
529.3555908203125 -11.68775749206543 25.0 172 199 204
529.55419921875 -243.25946044921875 25.0 50 50 46
536.0492553710938 -170.65797424316406 25.0 25 35 33
536.0492553710938 -170.65797424316406 25.0 25 35 33
537.8231811523438 -71.75016021728516 25.0 148 172 180
537.8231811523438 -71.75016021728516 25.0 148 172 180
545.6245727539062 -257.73486328125 25.0 87 105 110
575.814697265625 -84.06266021728516 24.0 69 89 87
585.1918334960938 -252.1171417236328 23.0 93 109 114
597.0468139648438 -257.6734313964844 13.0 130 140 133
599.3519287109375 -74.93638610839844 20.0 143 164 166
600.85009765625 -89.27404022216797 25.0 145 158 164
603.8655395507812 -152.7344207763672 20.0 144 165 169
606.8547973632812 -258.3279113769531 25.0 124 130 122
608.79443359375 -165.44332885742188 25.0 130 152 156
613.097900390625 -241.9291534423828 25.0 124 134 132
615.3956909179688 -249.16209411621094 25.0 126 138 135
