ply
format ascii 1.0
element vertex 250
property float x
property float y
property float z
property uchar red
property uchar green
property uchar blue
end_header
315.0811767578125 -219.4545440673828 27.0 159 174 175
330.6908264160156 -191.70977783203125 26.0 166 180 181
346.1467590332031 -235.69723510742188 26.0 144 159 148
354.02850341796875 -227.96983337402344 26.0 12 13 0
355.6007385253906 -232.5294952392578 26.0 1 2 0
364.2458190917969 -239.9878387451172 25.0 127 136 120
387.55322265625 -14.155731201171875 25.0 128 93 78
388.1805725097656 -126.37930297851562 25.0 122 111 84
388.1805725097656 -126.37930297851562 25.0 122 111 84
394.6742858886719 -143.4296417236328 25.0 127 120 101
395.0160827636719 -152.69326782226562 25.0 123 113 93
398.62969970703125 -138.94815063476562 25.0 118 109 84
399.9956970214844 -146.03762817382812 25.0 124 115 92
400.58892822265625 -153.8745574951172 25.0 127 112 93
402.97900390625 -137.51699829101562 25.0 132 124 106
405.6053771972656 -152.55833435058594 25.0 78 72 55
406.553466796875 -135.28671264648438 25.0 102 101 83
409.2222595214844 -177.70948791503906 25.0 124 119 98
409.9115905761719 -143.30917358398438 25.0 118 111 87
410.47308349609375 -139.38490295410156 25.0 107 106 84
410.6556396484375 -174.25634765625 25.0 137 128 105
414.99481201171875 -170.04864501953125 25.0 118 118 95
416.37445068359375 -176.0131378173828 25.0 123 113 97
416.37445068359375 -176.0131378173828 25.0 123 113 97
417.4483337402344 -147.89723205566406 25.0 70 69 56
420.3854675292969 -165.8958282470703 25.0 42 51 33
423.6562194824219 -152.72772216796875 25.0 124 123 110
424.8573303222656 -139.36671447753906 25.0 115 108 91
424.9345703125 -173.23565673828125 25.0 33 33 6
426.50079345703125 -177.43377685546875 25.0 115 106 83
429.0406494140625 -160.33262634277344 25.0 127 112 95
430.0959167480469 -188.3332977294922 25.0 118 104 87
430.82196044921875 -165.510009765625 25.0 103 103 82
434.48419189453125 -160.7955780029297 25.0 123 109 89
437.604736328125 -159.7688751220703 25.0 117 107 89
438.31903076171875 -176.98928833007812 25.0 119 110 92
441.1067199707031 -165.78878784179688 25.0 41 42 26
441.2917175292969 -160.55618286132812 25.0 121 112 86
441.6462707519531 -172.53871154785156 25.0 87 84 69
443.3407287597656 -177.99258422851562 25.0 119 111 93
445.85198974609375 -162.37045288085938 25.0 70 70 48
446.0460205078125 -165.72207641601562 25.0 72 65 46
448.8135681152344 -163.2508087158203 25.0 115 108 87
451.4510803222656 -156.1538543701172 25.0 132 134 110
451.4510803222656 -156.1538543701172 25.0 132 134 110
452.39752197265625 -178.8390350341797 25.0 117 105 85
453.34814453125 -172.4895782470703 25.0 93 91 78
453.52740478515625 -21.28652572631836 25.0 124 51 36
456.4881896972656 -180.0380401611328 25.0 110 101 74
456.9510803222656 -156.7526397705078 25.0 17 19 1
458.4115905761719 -170.3542938232422 25.0 21 31 17
459.1401672363281 -177.9932861328125 25.0 111 94 76
461.49615478515625 -56.59577560424805 25.0 192 198 183
461.5342102050781 -173.9239044189453 25.0 111 112 94
463.49993896484375 -73.53565979003906 25.0 172 179 177
468.2193298339844 -148.10276794433594 133.0 159 177 184
469.6642761230469 -6.000621318817139 25.0 0 3 1
470.3495788574219 -62.989959716796875 25.0 144 171 172
470.8149108886719 -45.648494720458984 25.0 169 184 192
471.3134765625 -82.37580108642578 25.0 171 192 194
471.85223388671875 -138.90460205078125 25.0 175 193 200
474.1751708984375 -152.55950927734375 25.0 155 175 182
475.89813232421875 -79.85956573486328 25.0 146 169 173
478.0985412597656 -158.3588409423828 25.0 160 180 186
478.0985412597656 -158.3588409423828 25.0 160 180 186
478.95513916015625 -64.31353759765625 25.0 135 153 155
478.95513916015625 -64.31353759765625 25.0 135 153 155
479.9488830566406 -224.8834228515625 25.0 104 95 70
480.5392761230469 -7.33728551864624 25.0 28 44 49
481.9881896972656 -78.59587097167969 25.0 127 134 133
482.12701416015625 -180.8129425048828 25.0 136 163 157
482.1838073730469 -194.72608947753906 25.0 163 193 186
482.677001953125 -70.28898620605469 25.0 111 126 134
482.7005615234375 -191.8860321044922 25.0 152 187 181
483.03076171875 -172.1116943359375 25.0 167 182 190
483.0694580078125 -67.30838012695312 25.0 140 168 166
483.0694580078125 -67.30838012695312 25.0 140 168 166
483.66912841796875 -148.6407470703125 25.0 193 208 219
483.6925964355469 -137.53273010253906 25.0 164 180 181
483.78656005859375 -82.3224868774414 25.0 9 37 30
485.3037414550781 -210.0453643798828 25.0 83 108 132
486.5657043457031 -140.3028106689453 25.0 44 60 63
487.2285461425781 -188.5775604248047 25.0 146 164 167
488.2655334472656 -47.523590087890625 25.0 160 180 184
488.2655334472656 -47.523590087890625 25.0 160 180 184
490.4273681640625 -184.96389770507812 25.0 64 85 80
491.3157043457031 -70.17390441894531 25.0 117 135 140
491.45184326171875 -180.3591766357422 25.0 166 192 188
493.7183837890625 -220.81036376953125 25.0 100 100 70
493.864990234375 -148.3201904296875 25.0 191 211 220
495.0434265136719 -188.08677673339844 25.0 149 166 171
495.4852294921875 -198.7769012451172 25.0 133 159 174
495.4852294921875 -198.7769012451172 25.0 133 159 174
495.9722595214844 -228.97010803222656 25.0 115 105 85
496.0501403808594 -81.36481475830078 26.0 115 133 133
497.8017578125 -54.65575408935547 25.0 185 198 204
497.8017578125 -54.65575408935547 25.0 185 198 204
498.4296569824219 -152.1468505859375 25.0 55 80 81
498.9031982421875 -180.73802185058594 25.0 172 197 196
499.8908386230469 -69.6784439086914 25.0 52 66 67
501.094970703125 -47.57332992553711 25.0 161 179 189
501.8697509765625 -62.57311248779297 25.0 158 178 185
501.8697509765625 -62.57311248779297 25.0 158 178 185
503.8572082519531 -75.8382797241211 25.0 176 204 202
503.8572082519531 -75.8382797241211 25.0 176 204 202
504.41650390625 -186.48684692382812 25.0 143 163 172
505.3106689453125 -76.57686614990234 25.0 171 206 200
505.9031677246094 -147.8464813232422 25.0 103 124 119
505.9701843261719 -151.79017639160156 25.0 144 188 182
507.1911315917969 -193.09095764160156 25.0 140 165 164
507.2646789550781 -69.01384735107422 25.0 35 63 61
507.2646789550781 -69.01384735107422 25.0 35 63 61
508.1553649902344 -157.17724609375 25.0 160 178 183
508.59210205078125 -186.66354370117188 25.0 156 173 183
508.62445068359375 -80.7628173828125 25.0 163 180 185
508.9450988769531 -45.226600646972656 25.0 160 178 183
508.9450988769531 -45.226600646972656 25.0 160 178 183
510.4249572753906 -142.53428649902344 25.0 47 46 55
511.330078125 -136.5234375 25.0 107 117 108
511.5718994140625 -160.33578491210938 24.0 151 172 176
512.7642822265625 -46.52914047241211 25.0 160 180 184
513.4707641601562 -147.53517150878906 25.0 110 124 121
514.1812133789062 -203.32952880859375 25.0 140 168 178
514.8307495117188 -68.32315826416016 25.0 91 115 123
514.9325561523438 -224.0601348876953 25.0 120 109 84
515.3466186523438 -138.16058349609375 25.0 13 17 16
515.776611328125 -144.44723510742188 25.0 0 17 4
516.057373046875 -195.320068359375 25.0 0 31 12
517.5661010742188 -76.89796447753906 25.0 140 174 171
518.85498046875 -151.69613647460938 24.0 185 207 211
519.7075805664062 -136.4766387939453 24.0 153 162 163
519.7396850585938 -145.8497314453125 24.0 0 17 0
519.8771362304688 -142.12818908691406 25.0 163 170 175
520.008056640625 -73.40755462646484 24.0 149 169 176
521.38232421875 -192.72393798828125 24.0 168 192 200
521.5008544921875 -198.09246826171875 24.0 152 178 186
521.9882202148438 -43.1926155090332 25.0 163 176 180
524.0494384765625 -136.83425903320312 24.0 44 61 51
524.4400634765625 -131.89767456054688 24.0 148 168 177
524.4734497070312 -141.01190185546875 24.0 0 9 6
524.7473754882812 -152.22390747070312 24.0 78 97 113
524.8352661132812 -166.79405212402344 24.0 154 174 178
524.8701171875 -187.25025939941406 24.0 156 176 185
525.0120239257812 -156.54527282714844 24.0 115 131 137
525.0120239257812 -156.54527282714844 24.0 115 131 137
525.3173217773438 -199.06813049316406 24.0 152 178 188
525.4259643554688 -85.20060729980469 34.0 159 177 184
526.3733520507812 -189.67164611816406 24.0 168 192 198
526.3733520507812 -189.67164611816406 24.0 168 192 198
526.38427734375 -225.11863708496094 24.0 110 101 80
527.1239013671875 -61.09699249267578 24.0 155 175 180
527.2784423828125 -129.97384643554688 24.0 168 179 188
527.4414672851562 -154.15310668945312 24.0 92 109 117
527.9620971679688 -73.19816589355469 24.0 156 173 181
528.8125610351562 -145.4966583251953 24.0 0 6 0
528.9960327148438 -196.22142028808594 24.0 52 79 80
529.0404052734375 -5.070911407470703 25.0 51 79 72
529.0529174804688 -45.083457946777344 24.0 160 178 185
529.0529174804688 -45.083457946777344 24.0 160 178 185
529.772216796875 -192.04905700683594 24.0 140 167 175
530.972412109375 -192.73153686523438 24.0 40 68 76
530.972412109375 -192.73153686523438 24.0 40 68 76
531.9267578125 -222.53421020507812 24.0 104 97 71
532.3683471679688 -135.43528747558594 24.0 17 32 17
532.761474609375 -60.6488037109375 24.0 154 173 183
532.761474609375 -60.6488037109375 24.0 154 173 183
533.05517578125 -150.375244140625 24.0 157 183 189
535.1693725585938 -42.904727935791016 25.0 158 175 185
535.1693725585938 -42.904727935791016 25.0 158 175 185
536.2373046875 -44.99518966674805 25.0 158 175 185
536.4375610351562 -85.32909393310547 24.0 161 179 186
536.4375610351562 -85.32909393310547 24.0 161 179 186
536.8175659179688 -143.83889770507812 24.0 0 3 1
537.9304809570312 -96.60086822509766 25.0 0 15 12
537.9304809570312 -96.60086822509766 25.0 0 15 12
538.236328125 -128.11639404296875 24.0 14 25 27
538.236328125 -128.11639404296875 24.0 14 25 27
538.74365234375 -146.46046447753906 24.0 18 33 19
540.0548706054688 -58.281227111816406 24.0 153 175 182
541.4956665039062 -138.72189331054688 24.0 171 170 184
541.8058471679688 -223.11216735839844 24.0 99 92 71
542.5618896484375 -130.52276611328125 24.0 178 198 203
542.5618896484375 -130.52276611328125 24.0 178 198 203
543.6860961914062 -141.0061798095703 24.0 58 75 85
543.8380126953125 -145.84048461914062 24.0 0 14 0
544.7992553710938 -84.98519134521484 24.0 157 174 182
544.7992553710938 -84.98519134521484 24.0 157 174 182
545.5755004882812 -218.86923217773438 24.0 91 91 69
545.7811279296875 -149.8208465576172 24.0 163 180 188
546.35400390625 -142.81246948242188 24.0 138 161 158
546.764404296875 -127.68863677978516 24.0 100 121 121
546.764404296875 -127.68863677978516 24.0 100 121 121
547.3713989257812 -155.29608154296875 24.0 164 180 183
548.9576416015625 -145.848876953125 24.0 0 12 0
549.826171875 -222.91258239746094 24.0 112 105 82
551.07080078125 -142.48577880859375 24.0 110 124 123
552.3853149414062 -84.21221923828125 24.0 159 174 182
552.3853149414062 -84.21221923828125 24.0 159 174 182
552.455322265625 -149.71531677246094 24.0 165 187 191
554.6082153320312 -128.1929473876953 24.0 48 48 48
554.6082153320312 -128.1929473876953 24.0 48 48 48
554.65234375 -227.0189208984375 20.0 123 113 93
554.9385375976562 -138.11900329589844 24.0 0 2 5
555.9613037109375 -205.67291259765625 24.0 146 170 178
557.5883178710938 -135.04583740234375 24.0 15 32 22
557.9481811523438 -129.97877502441406 24.0 0 2 1
558.6716918945312 -145.49327087402344 24.0 0 13 4
559.9567260742188 -81.53287506103516 24.0 157 174 184
560.018798828125 -208.2740936279297 24.0 84 108 123
560.018798828125 -208.2740936279297 24.0 84 108 123
561.54150390625 -59.35869598388672 24.0 151 168 176
562.5640258789062 -83.08954620361328 24.0 153 175 184
562.9625854492188 -130.63491821289062 24.0 2 15 21
563.0624389648438 -139.8800048828125 24.0 32 44 30
563.0624389648438 -139.8800048828125 24.0 32 44 30
563.7944946289062 -121.51750946044922 25.0 181 199 200
564.0863037109375 -142.407958984375 24.0 26 33 27
564.8922119140625 -128.2136993408203 24.0 178 201 198
564.8989868164062 -81.56663513183594 24.0 157 174 182
564.8989868164062 -81.56663513183594 24.0 157 174 182
566.537109375 -88.41226196289062 24.0 107 130 127
567.4366455078125 -130.40457153320312 24.0 83 103 107
567.5106811523438 -83.1034164428711 24.0 152 174 178
568.4877319335938 -118.03855895996094 24.0 76 120 131
569.915771484375 -127.9483642578125 24.0 141 169 165
569.915771484375 -127.9483642578125 24.0 141 169 165
571.62451171875 -61.77164077758789 24.0 156 173 181
572.5064086914062 -83.2344741821289 24.0 156 176 181
580.22509765625 -57.72677230834961 19.0 155 175 182
583.6991577148438 -123.82537841796875 24.0 0 6 5
588.7645874023438 -128.8470001220703 24.0 158 179 179
589.252685546875 -57.46505355834961 25.0 154 174 178
590.3578491210938 -83.919677734375 24.0 154 174 181
590.3578491210938 -83.919677734375 24.0 154 174 181
591.5880737304688 -127.16376495361328 24.0 183 203 203
593.2852783203125 -124.79439544677734 24.0 48 71 75
593.2852783203125 -124.79439544677734 24.0 48 71 75
598.3171997070312 -128.2631378173828 30.0 46 68 79
598.5442504882812 -83.68928527832031 24.0 153 176 180
598.5442504882812 -83.68928527832031 24.0 153 176 180
600.4417724609375 -57.03321838378906 25.0 152 174 183
601.6727905273438 -253.35874938964844 34.0 119 124 116
602.357177734375 -59.191036224365234 25.0 153 175 182
605.4274291992188 -128.10459899902344 24.0 151 176 182
609.9708251953125 -82.87433624267578 25.0 154 172 179
614.5068969726562 -210.13587951660156 24.0 152 170 177
617.317626953125 -85.80500793457031 25.0 150 172 178
627.4385375976562 -82.85643005371094 25.0 147 171 177
627.5365600585938 -126.8397216796875 24.0 0 13 17
631.6458740234375 -125.96133422851562 24.0 151 173 175
