ply
format ascii 1.0
element vertex 43
property float x
property float y
property float z
property uchar red
property uchar green
property uchar blue
end_header
85.29612731933594 -237.385009765625 83.0 132 157 151
99.96174621582031 -237.093017578125 69.0 132 151 147
173.31077575683594 -252.6283721923828 166.0 107 117 110
215.0167999267578 -247.96163940429688 37.0 130 131 122
226.8143768310547 -225.0797882080078 75.0 91 101 85
244.0509033203125 -160.29153442382812 71.0 58 47 36
247.4930419921875 -166.09188842773438 75.0 53 44 33
248.07118225097656 -218.99752807617188 74.0 25 40 23
257.295654296875 -206.86526489257812 74.0 168 192 196
257.3434143066406 -159.6773681640625 77.0 151 66 51
258.3821716308594 -210.8399658203125 75.0 174 193 202
258.3821716308594 -210.8399658203125 75.0 174 193 202
258.7562255859375 -210.53802490234375 74.0 174 193 202
258.97467041015625 -185.1382293701172 75.0 172 66 47
258.9881286621094 -216.86793518066406 150.0 171 192 194
259.1083068847656 -203.34832763671875 74.0 168 188 190
262.9136962890625 -233.40194702148438 74.0 159 169 166
263.4206237792969 -189.77520751953125 74.0 170 67 29
269.4343566894531 -227.9148406982422 72.0 101 117 123
271.0437927246094 -206.5900115966797 87.0 171 191 200
278.1126403808594 -219.72750854492188 74.0 44 51 22
278.1126403808594 -219.72750854492188 74.0 44 51 22
285.885986328125 -180.8130340576172 74.0 16 74 140
288.7117004394531 -185.50518798828125 74.0 10 74 137
289.2127685546875 -233.28477478027344 75.0 170 172 149
291.0990295410156 -181.07391357421875 74.0 6 83 141
292.7563781738281 -210.3240203857422 75.0 183 185 155
292.7563781738281 -210.3240203857422 75.0 183 185 155
293.9337463378906 -176.85317993164062 74.0 10 43 61
294.0069580078125 -185.1566925048828 74.0 19 82 143
295.37017822265625 -158.9113311767578 73.0 164 198 199
298.4495544433594 -174.2815399169922 75.0 45 67 71
300.6466979980469 -177.910888671875 44.0 19 57 85
304.9720153808594 -165.77207946777344 74.0 42 70 66
304.9720153808594 -165.77207946777344 74.0 42 70 66
321.8086853027344 -180.3459014892578 77.0 170 191 190
330.46490478515625 -215.03201293945312 80.0 18 48 66
411.94293212890625 -56.73539733886719 204.0 99 87 72
573.7213134765625 -208.99884033203125 103.0 31 37 26
588.4107666015625 -34.0168342590332 114.0 250 255 251
591.822998046875 -254.6136474609375 94.0 179 210 212
593.1675415039062 -239.165771484375 101.0 205 230 231
593.5169067382812 -229.94749450683594 100.0 216 252 255
