ply
format ascii 1.0
element vertex 72
property float x
property float y
property float z
property uchar red
property uchar green
property uchar blue
end_header
295.7936096191406 -192.3907928466797 44.0 146 157 155
323.68939208984375 -230.16725158691406 124.0 131 141 130
323.8830261230469 -184.01148986816406 64.0 149 158 156
329.2698059082031 -97.23848724365234 40.0 166 182 180
329.53643798828125 -158.20059204101562 40.0 154 170 166
329.93170166015625 -259.658203125 40.0 133 141 128
333.4891357421875 -232.35501098632812 40.0 136 146 135
334.31597900390625 -239.270751953125 41.0 138 146 133
335.0801696777344 -147.39964294433594 40.0 159 175 173
352.90673828125 -122.87181091308594 40.0 167 50 31
352.90673828125 -122.87181091308594 40.0 167 50 31
355.1221008300781 -241.59344482421875 47.0 122 127 121
355.6861877441406 -212.4598388671875 40.0 149 166 174
355.6861877441406 -212.4598388671875 40.0 149 166 174
370.2774658203125 -234.9318389892578 63.0 90 97 91
370.31414794921875 -247.50369262695312 40.0 130 135 130
370.6361389160156 -141.32789611816406 42.0 175 80 47
371.39111328125 -146.42401123046875 40.0 176 76 49
371.7527770996094 -132.2361297607422 40.0 29 30 21
371.98419189453125 -230.84385681152344 40.0 12 20 11
371.98419189453125 -230.84385681152344 40.0 12 20 11
376.7696838378906 -113.74361419677734 40.0 171 57 31
376.7796936035156 -138.86514282226562 40.0 157 84 56
377.04034423828125 -91.3388671875 40.0 156 58 35
378.7913818359375 -237.6998291015625 40.0 116 117 112
378.7913818359375 -237.6998291015625 40.0 116 117 112
378.9239501953125 -252.97518920898438 40.0 130 129 118
383.9550476074219 -150.56883239746094 40.0 175 79 51
386.0919189453125 -231.76791381835938 40.0 9 19 8
386.0919189453125 -231.76791381835938 40.0 9 19 8
388.04364013671875 -247.82640075683594 40.0 98 99 89
402.1947326660156 -123.61251068115234 40.0 155 175 184
405.60760498046875 -244.06690979003906 40.0 122 118 85
408.3582763671875 -210.74313354492188 40.0 165 145 45
420.6238098144531 -141.58502197265625 40.0 5 34 41
421.8675231933594 -196.2093963623047 39.0 170 150 50
422.20849609375 -247.72129821777344 39.0 132 129 93
422.69476318359375 -247.18678283691406 39.0 132 129 93
424.4542541503906 -98.69234466552734 39.0 151 171 178
424.4542541503906 -98.69234466552734 39.0 151 171 178
425.065185546875 -230.722900390625 39.0 15 25 12
428.19024658203125 -145.88999938964844 40.0 13 79 132
428.4067077636719 -194.1738739013672 38.0 164 148 49
428.9120178222656 -202.88255310058594 39.0 167 149 46
429.48681640625 -95.43501281738281 39.0 160 174 177
429.48681640625 -95.43501281738281 39.0 160 174 177
432.4988708496094 -135.68592834472656 40.0 99 120 115
432.76617431640625 -236.0302734375 39.0 100 99 67
434.0304260253906 -143.19862365722656 28.0 16 40 55
436.4743347167969 -130.52243041992188 27.0 0 12 9
436.5774841308594 -192.0896453857422 40.0 27 28 0
436.5774841308594 -192.0896453857422 40.0 27 28 0
436.9252624511719 -130.0814208984375 27.0 0 12 9
437.42535400390625 -141.4664306640625 39.0 13 22 20
437.42535400390625 -141.4664306640625 39.0 13 22 20
438.3659973144531 -179.90322875976562 39.0 12 28 27
438.3659973144531 -179.90322875976562 39.0 12 28 27
440.4123840332031 -200.87950134277344 29.0 20 29 23
442.0616455078125 -236.4510040283203 52.0 67 68 61
447.33380126953125 -183.92247009277344 35.0 7 16 14
448.0526428222656 -243.43873596191406 44.0 83 103 107
451.8531799316406 -164.9124298095703 39.0 150 170 175
473.79718017578125 -189.18350219726562 40.0 39 78 124
473.79718017578125 -189.18350219726562 40.0 39 78 124
477.3425598144531 -90.4526138305664 39.0 151 169 174
477.41070556640625 -129.97511291503906 40.0 123 146 141
477.41070556640625 -129.97511291503906 39.0 123 146 141
478.12579345703125 -139.9775848388672 39.0 142 164 170
478.7127380371094 -179.80467224121094 39.0 14 27 17
478.9451904296875 -134.8234100341797 39.0 0 19 10
481.9329528808594 -186.91587829589844 39.0 16 37 33
484.1295166015625 -190.03341674804688 23.0 15 54 75
