ply
format ascii 1.0
element vertex 64
property float x
property float y
property float z
property uchar red
property uchar green
property uchar blue
end_header
318.1922607421875 -130.22293090820312 64.0 160 175 179
321.12677001953125 -176.52102661132812 1059.0 128 136 130
321.14605712890625 -213.0690155029297 50.0 122 132 125
321.6698913574219 -225.84954833984375 166.0 119 120 108
321.8980407714844 -116.48886108398438 50.0 164 177 179
321.8980407714844 -116.48886108398438 50.0 164 177 179
322.0068054199219 -174.16331481933594 60.0 127 135 128
324.0404357910156 -150.3856658935547 50.0 125 137 134
326.159423828125 -185.4723663330078 50.0 125 132 130
339.1890563964844 -134.85162353515625 51.0 111 64 50
340.294189453125 -207.93101501464844 50.0 152 167 175
348.27642822265625 -244.52796936035156 50.0 143 141 137
349.5568542480469 -242.56320190429688 49.0 130 131 126
354.2391662597656 -156.30252075195312 50.0 174 70 39
354.2391662597656 -156.30252075195312 50.0 174 70 39
354.7049255371094 -144.049560546875 50.0 41 19 8
359.8456726074219 -228.90794372558594 50.0 102 107 106
359.9792175292969 -251.3859100341797 50.0 134 133 126
361.6037292480469 -116.22313690185547 50.0 167 44 20
362.4487609863281 -150.90438842773438 50.0 173 80 51
365.5953674316406 -227.5019989013672 47.0 106 106 106
365.9099426269531 -119.14964294433594 50.0 165 49 32
366.1578063964844 -223.57925415039062 46.0 36 37 26
366.2027282714844 -149.3619842529297 50.0 167 80 59
366.2027282714844 -149.3619842529297 50.0 167 80 59
373.7553405761719 -235.16778564453125 55.0 97 98 84
377.03076171875 -190.44351196289062 78.0 153 150 84
379.27215576171875 -137.88438415527344 50.0 161 179 184
383.8246765136719 -207.4407501220703 49.0 161 145 44
393.831298828125 -220.30052185058594 50.0 21 27 14
395.6846008300781 -222.2899627685547 50.0 14 23 5
395.9104309082031 -235.4804229736328 36.0 136 132 99
396.0588073730469 -148.05877685546875 50.0 26 42 41
396.6610412597656 -118.64692687988281 50.0 148 170 181
399.69720458984375 -191.11581420898438 38.0 167 144 47
400.3030090332031 -212.82325744628906 59.0 163 145 49
400.7875671386719 -110.00321960449219 50.0 6 23 12
401.2337646484375 -115.6421127319336 50.0 160 177 189
401.2337646484375 -115.6421127319336 50.0 160 177 189
402.3106384277344 -228.53370666503906 50.0 105 99 64
402.3106384277344 -228.53370666503906 50.0 105 99 64
403.2438659667969 -147.5956573486328 50.0 30 47 39
405.970947265625 -192.426513671875 49.0 166 147 56
405.970947265625 -192.426513671875 49.0 166 147 56
406.8919982910156 -143.3433380126953 50.0 171 191 200
406.8919982910156 -143.3433380126953 50.0 171 191 200
407.15850830078125 -142.97137451171875 49.0 164 181 193
407.15850830078125 -142.97137451171875 49.0 164 181 193
407.5899353027344 -152.71826171875 34.0 37 79 122
407.9367370605469 -153.1774139404297 34.0 36 79 128
408.10919189453125 -182.54661560058594 49.0 33 53 57
408.10919189453125 -182.54661560058594 49.0 33 53 57
410.01239013671875 -227.60682678222656 66.0 76 71 54
419.5655517578125 -171.04043579101562 49.0 150 174 183
435.88934326171875 -190.20657348632812 50.0 25 84 139
438.3548278808594 -143.38475036621094 49.0 16 35 24
438.4314880371094 -151.94349670410156 50.0 147 169 180
439.9059143066406 -187.29544067382812 25.0 11 44 66
439.9059143066406 -187.29544067382812 48.0 11 44 66
439.99371337890625 -230.21507263183594 49.0 86 98 109
441.3138732910156 -211.24505615234375 41.0 18 82 138
441.62750244140625 -206.96847534179688 41.0 17 81 144
444.1178894042969 -147.84681701660156 49.0 165 182 194
444.52960205078125 -168.00181579589844 49.0 152 169 181
