ply
format ascii 1.0
element vertex 69
property float x
property float y
property float z
property uchar red
property uchar green
property uchar blue
end_header
322.826416015625 -208.5282745361328 337.0 158 167 165
323.8871765136719 -148.2936553955078 46.0 162 174 171
329.1416015625 -230.31744384765625 73.0 93 91 80
342.24090576171875 -213.0688018798828 46.0 139 161 168
342.24090576171875 -213.0688018798828 46.0 139 161 168
343.4783630371094 -230.3332061767578 62.0 69 76 75
348.172607421875 -233.08506774902344 64.0 102 107 102
353.0208740234375 -247.61497497558594 45.0 137 138 133
356.95355224609375 -228.8982391357422 45.0 4 14 5
356.95355224609375 -228.8982391357422 45.0 4 14 5
357.4831848144531 -229.4526824951172 45.0 9 14 9
357.4831848144531 -229.4526824951172 45.0 9 14 9
357.6605224609375 -154.98745727539062 46.0 174 73 37
359.9417419433594 -184.06097412109375 51.0 1 14 4
361.1002502441406 -229.44793701171875 48.0 17 25 12
362.4366455078125 -235.89535522460938 45.0 115 120 115
362.4366455078125 -235.89535522460938 45.0 115 120 115
362.97991943359375 -253.8631591796875 45.0 135 132 121
366.716064453125 -110.39383697509766 45.0 170 49 29
367.4954528808594 -115.78679656982422 46.0 168 46 31
368.46343994140625 -217.37962341308594 42.0 154 169 175
370.7494201660156 -114.11064147949219 45.0 170 53 35
370.7494201660156 -114.11064147949219 45.0 170 53 35
372.0235595703125 -234.13864135742188 34.0 74 75 66
373.2727355957031 -247.963623046875 46.0 98 98 94
375.0131530761719 -148.46170043945312 45.0 65 24 6
385.9983825683594 -134.74537658691406 45.0 156 176 185
394.82763671875 -231.45062255859375 40.0 63 69 52
396.6117248535156 -195.9822235107422 39.0 163 145 49
399.58282470703125 -248.29000854492188 45.0 140 132 102
401.1361083984375 -234.01873779296875 44.0 99 93 62
404.7550964355469 -147.0879364013672 45.0 19 36 25
404.83892822265625 -239.4158477783203 33.0 129 123 88
404.9385681152344 -221.29537963867188 37.0 169 151 67
404.9464111328125 -203.86868286132812 37.0 166 151 50
405.0823974609375 -215.507568359375 37.0 162 148 56
405.0906982421875 -147.45445251464844 45.0 25 42 31
405.0906982421875 -147.45445251464844 45.0 25 42 31
405.105224609375 -113.99291229248047 45.0 144 168 179
405.105224609375 -113.99291229248047 45.0 144 168 179
405.54132080078125 -113.5582275390625 45.0 144 168 179
405.54132080078125 -113.5582275390625 45.0 144 168 179
408.1515197753906 -155.4859619140625 45.0 15 80 143
409.6949157714844 -236.24310302734375 45.0 111 105 70
409.6949157714844 -236.24310302734375 45.0 111 105 70
410.38555908203125 -110.2041015625 45.0 145 167 180
412.3099365234375 -146.05267333984375 45.0 14 33 22
412.9721984863281 -136.54893493652344 37.0 153 172 182
414.3487243652344 -195.3521270751953 45.0 171 157 87
414.3487243652344 -195.3521270751953 45.0 171 157 87
415.45343017578125 -176.47451782226562 35.0 19 65 105
416.0226135253906 -141.54112243652344 31.0 164 180 181
417.9571533203125 -234.93984985351562 45.0 65 66 55
420.8602294921875 -238.72474670410156 25.0 75 83 70
428.7715148925781 -172.34820556640625 45.0 150 170 177
428.7989501953125 -217.56488037109375 45.0 26 80 133
429.9479675292969 -199.90843200683594 32.0 27 81 132
440.0735778808594 -238.92384338378906 23.0 78 102 117
445.9436340332031 -186.32325744628906 27.0 18 28 21
447.4026184082031 -150.79898071289062 28.0 148 168 177
447.5941162109375 -193.63766479492188 45.0 36 83 132
451.0317077636719 -142.0658416748047 45.0 21 35 27
451.4918212890625 -150.92044067382812 45.0 147 165 175
452.12689208984375 -115.10643005371094 39.0 142 163 176
452.8511657714844 -190.12393188476562 45.0 15 36 38
453.1805725097656 -197.39044189453125 45.0 23 82 137
455.9903869628906 -208.1529083251953 28.0 19 83 137
456.0135803222656 -224.6365203857422 28.0 27 80 123
456.0779113769531 -211.9375762939453 28.0 31 83 131
